256   
288
-2184.51 -5759.59 1563.65 0.5025
-2184.43 -5759.37 1564.83 0.5049
-2184.46 -5759.46 1566.09 0.5079
-2184.54 -5759.67 1567.39 0.5107
-2184.47 -5759.51 1568.59 0.5106
-2184.46 -5759.48 1569.82 0.5102
-2184.44 -5759.43 1571.05 0.5105
-2184.40 -5759.31 1572.26 0.5072
-2184.46 -5759.49 1573.55 0.5062
-2184.45 -5759.45 1574.78 0.5056
-2184.32 -5759.11 1575.93 0.5082
-2184.41 -5759.36 1577.24 0.5082
-2184.35 -5759.19 1578.44 0.5087
-2184.32 -5759.14 1579.66 0.5078
-2184.33 -5759.16 1580.91 0.5054
-2184.32 -5759.12 1582.14 0.5049
-2184.36 -5759.23 1583.41 0.5032
-2184.41 -5759.37 1584.69 0.5011
-2184.56 -5759.76 1586.04 0.4982
-2184.55 -5759.76 1587.28 0.4971
-2184.61 -5759.91 1588.57 0.4951
-2184.60 -5759.90 1589.80 0.4956
-2184.69 -5760.13 1591.11 0.4995
-2184.68 -5760.12 1592.35 0.5014
-2184.64 -5759.99 1593.55 0.4955
-2184.62 -5759.95 1594.78 0.4966
-2184.63 -5759.99 1596.04 0.4947
-2184.58 -5759.84 1597.24 0.4976
-2184.60 -5759.92 1598.50 0.4973
-2184.56 -5759.82 1599.72 0.4974
-2184.51 -5759.68 1600.92 0.4993
-2184.59 -5759.88 1602.22 0.4998
-2184.61 -5759.94 1603.48 0.5002
-2184.54 -5759.75 1604.67 0.4994
-2184.49 -5759.63 1605.88 0.4960
-2184.43 -5759.49 1607.08 0.4986
-2184.47 -5759.60 1608.35 0.5013
-2184.47 -5759.59 1609.60 0.4995
-2184.49 -5759.65 1610.86 0.4961
-2184.47 -5759.60 1612.09 0.4971
-2184.52 -5759.73 1613.36 0.4978
-2184.36 -5759.31 1614.49 0.4966
-2184.31 -5759.19 1615.70 0.4958
-2184.41 -5759.46 1617.02 0.4951
-2184.50 -5759.70 1618.33 0.4952
-2184.40 -5759.42 1619.50 0.4950
-2184.38 -5759.38 1620.73 0.4968
-2184.45 -5759.57 1622.03 0.4957
-2184.42 -5759.50 1623.25 0.4949
-2184.46 -5759.61 1624.53 0.4959
-2184.39 -5759.41 1625.72 0.4958
-2184.41 -5759.46 1626.98 0.4993
-2184.43 -5759.51 1628.24 0.4974
-2184.44 -5759.55 1629.49 0.4951
-2184.40 -5759.45 1630.71 0.4975
-2184.41 -5759.47 1631.96 0.5004
-2184.31 -5759.23 1633.13 0.5011
-2184.34 -5759.29 1634.40 0.4979
-2184.40 -5759.46 1635.69 0.4967
-2184.36 -5759.35 1636.90 0.4947
-2184.34 -5759.30 1638.14 0.4975
-2184.27 -5759.14 1639.34 0.4946
-2184.20 -5758.96 1640.53 0.4977
-2184.23 -5759.04 1641.80 0.4995
-2184.26 -5759.12 1643.07 0.5009
-2184.28 -5759.18 1644.34 0.5017
-2184.28 -5759.16 1645.58 0.4994
-2184.26 -5759.11 1646.81 0.4962
-2184.24 -5759.08 1648.05 0.4956
-2184.24 -5759.08 1649.30 0.4952
-2184.23 -5759.04 1650.54 0.4977
-2186.40 -5761.03 1296.77 0.5000
-2186.47 -5761.21 1298.03 0.4991
-2186.42 -5761.06 1299.21 0.4998
-2186.42 -5761.08 1300.43 0.5028
-2186.33 -5760.84 1301.60 0.4981
-2186.43 -5761.10 1302.87 0.4998
-2186.46 -5761.19 1304.11 0.5028
-2186.46 -5761.19 1305.33 0.5009
-2186.43 -5761.11 1306.53 0.4963
-2186.42 -5761.08 1307.74 0.4964
-2186.40 -5761.06 1308.95 0.4988
-2186.45 -5761.18 1310.20 0.4993
-2186.49 -5761.29 1311.44 0.5003
-2186.46 -5761.22 1312.64 0.4989
-2186.46 -5761.20 1313.85 0.4986
-2186.42 -5761.12 1315.05 0.4971
-2186.34 -5760.91 1316.22 0.4957
-2186.39 -5761.04 1317.47 0.4980
-2186.35 -5760.94 1318.66 0.4986
-2186.23 -5760.63 1319.81 0.5057
-2186.24 -5760.66 1321.03 0.5097
-2186.14 -5760.38 1322.18 0.5062
-2186.08 -5760.24 1323.37 0.5045
-2186.01 -5760.06 1324.54 0.5028
-2186.08 -5760.24 1325.80 0.5033
-2186.10 -5760.29 1327.03 0.5057
-2186.10 -5760.31 1328.25 0.5062
-2186.12 -5760.35 1329.47 0.5065
-2186.17 -5760.49 1330.73 0.5083
-2186.16 -5760.46 1331.94 0.5054
-2186.10 -5760.30 1333.12 0.5063
-2186.21 -5760.61 1334.41 0.5079
-2186.21 -5760.61 1335.63 0.5057
-2186.15 -5760.44 1336.81 0.5021
-2186.14 -5760.42 1338.02 0.5020
-2186.23 -5760.67 1339.30 0.5030
-2186.23 -5760.68 1340.52 0.5052
-2186.17 -5760.52 1341.70 0.5030
-2186.18 -5760.54 1342.93 0.5025
-2186.17 -5760.53 1344.14 0.5042
-2186.12 -5760.38 1345.33 0.5026
-2186.16 -5760.51 1346.58 0.5026
-2186.17 -5760.52 1347.80 0.4994
-2186.25 -5760.74 1349.07 0.4947
-2186.26 -5760.78 1350.30 0.4702
-2186.29 -5760.85 1351.54 0.4303
-2186.27 -5760.81 1352.75 0.3710
-2186.45 -5761.27 1354.08 0.3080
-2186.35 -5761.01 1355.24 0.2530
-2186.08 -5760.31 1356.29 0.2253
-2186.11 -5760.38 1357.53 0.2179
-2186.27 -5760.80 1358.85 0.2133
-2186.10 -5760.37 1359.97 0.2121
-2186.01 -5760.14 1361.13 0.2115
-2186.04 -5760.21 1362.37 0.2144
-2186.08 -5760.32 1363.62 0.2146
-2186.23 -5760.72 1364.93 0.2128
-2186.15 -5760.51 1366.10 0.2125
-2186.14 -5760.49 1367.32 0.2126
-2186.23 -5760.72 1368.60 0.2090
-2186.00 -5760.12 1369.68 0.2121
-2186.06 -5760.30 1370.94 0.2129
-2186.49 -5761.44 1372.43 0.2112
-2186.05 -5760.28 1373.38 0.2118
-2186.31 -5760.97 1374.77 0.2097
-2186.30 -5760.93 1375.98 0.2097
-2186.28 -5760.87 1377.19 0.2099
-2186.15 -5760.56 1378.34 0.2106
-2186.28 -5760.89 1379.64 0.2144
-2186.52 -5761.52 1381.01 0.2113
-2186.20 -5760.69 1382.04 0.2111
-2186.24 -5760.80 1383.29 0.2093
-2186.20 -5760.68 1384.48 0.2093
-2186.02 -5760.23 1385.60 0.2090
-2186.26 -5760.87 1386.98 0.2103
-2186.11 -5760.46 1388.10 0.2104
-2186.31 -5760.98 1389.46 0.2097
-2186.21 -5760.74 1390.62 0.2102
-2186.46 -5761.39 1392.00 0.2072
-2186.33 -5761.04 1393.15 0.2095
-2186.20 -5760.71 1394.29 0.2083
-2186.03 -5760.27 1395.41 0.2100
-2186.03 -5760.28 1396.64 0.2100
-2186.23 -5760.81 1397.99 0.2104
-2186.02 -5760.26 1399.08 0.2109
-2186.16 -5760.61 1400.39 0.2090
-2186.25 -5760.85 1401.68 0.2127
-2186.04 -5760.31 1402.77 0.2162
-2186.27 -5760.93 1404.14 0.2144
-2185.99 -5760.19 1405.19 0.2107
-2186.02 -5760.26 1406.43 0.2074
-2185.99 -5760.19 1407.64 0.2110
-2186.16 -5760.65 1408.98 0.2121
-2186.11 -5760.52 1411.39 0.2127
-2186.12 -5760.55 1412.62 0.2126
-2186.21 -5760.78 1413.91 0.2105
-2186.27 -5760.95 1415.17 0.2114
-2186.28 -5760.97 1416.41 0.2127
-2186.36 -5761.18 1417.68 0.2109
-2186.14 -5760.60 1418.77 0.2101
-2185.94 -5760.09 1419.87 0.2083
-2186.32 -5761.10 1421.34 0.2113
-2186.19 -5760.74 1422.48 0.2110
-2186.20 -5760.78 1423.72 0.2118
-2186.14 -5760.62 1424.91 0.2128
-2186.33 -5761.13 1426.26 0.2152
-2186.43 -5761.38 1427.55 0.2180
-2186.38 -5761.27 1428.75 0.2272
-2186.56 -5761.75 1430.09 0.2676
-2186.57 -5761.77 1431.32 0.3323
-2186.40 -5761.33 1432.44 0.4040
-2186.27 -5760.99 1433.59 0.4649
-2186.28 -5761.01 1434.82 0.4960
-2186.30 -5761.07 1436.06 0.5084
-2186.21 -5760.84 1437.23 0.5101
-2186.26 -5760.96 1438.49 0.5085
-2186.23 -5760.89 1439.70 0.5037
-2186.17 -5760.73 1440.89 0.5019
-2186.31 -5761.10 1442.21 0.5017
-2186.36 -5761.25 1443.47 0.5020
-2186.24 -5760.94 1444.62 0.5049
-2186.25 -5760.96 1445.85 0.5025
-2186.29 -5761.08 1447.11 0.5034
-2186.23 -5760.91 1448.29 0.5043
-2186.23 -5760.91 1449.52 0.5048
-2186.22 -5760.89 1450.75 0.5037
-2186.28 -5761.05 1452.01 0.5023
-2186.18 -5760.78 1453.17 0.5042
-2186.23 -5760.92 1454.44 0.5036
-2186.27 -5761.04 1455.70 0.5049
-2186.18 -5760.81 1456.87 0.5075
-2186.27 -5761.04 1458.16 0.5078
-2186.22 -5760.92 1459.35 0.5088
-2186.18 -5760.82 1460.56 0.5080
-2186.27 -5761.04 1461.85 0.5086
-2186.23 -5760.96 1463.05 0.5089
-2186.24 -5760.99 1464.29 0.5068
-2186.24 -5760.99 1465.52 0.5046
-2186.23 -5760.96 1466.74 0.5027
-2186.15 -5760.76 1467.92 0.5017
-2186.22 -5760.94 1469.20 0.5004
-2186.17 -5760.81 1470.40 0.5023
-2186.18 -5760.84 1471.63 0.5028
-2186.31 -5761.19 1472.95 0.5062
-2186.22 -5760.95 1474.12 0.5050
-2186.22 -5760.96 1475.35 0.5042
-2186.21 -5760.93 1476.58 0.5053
-2186.16 -5760.80 1477.77 0.5059
-2186.17 -5760.84 1479.01 0.5040
-2186.13 -5760.73 1480.22 0.5034
-2186.18 -5760.87 1481.48 0.5055
-2186.20 -5760.92 1482.73 0.5043
-2186.15 -5760.80 1483.93 0.5046
-2186.18 -5760.89 1485.18 0.5068
-2186.23 -5761.01 1486.44 0.5067
-2186.09 -5760.66 1487.59 0.5078
-2186.12 -5760.74 1488.84 0.5028
-2186.16 -5760.84 1490.10 0.5057
-2186.18 -5760.90 1491.35 0.5079
-2186.12 -5760.75 1492.54 0.5058
-2186.19 -5760.94 1493.82 0.5069
-2186.12 -5760.76 1495.01 0.5088
-2186.23 -5761.04 1496.31 0.5094
-2186.13 -5760.80 1497.48 0.5096
-2186.14 -5760.81 1498.72 0.5068
-2186.13 -5760.81 1499.95 0.5083
-2186.14 -5760.83 1501.19 0.5081
-2186.05 -5760.59 1502.36 0.5053
-2186.10 -5760.73 1503.63 0.5054
-2186.09 -5760.71 1504.86 0.5066
-2186.12 -5760.80 1506.12 0.5063
-2186.05 -5760.59 1507.30 0.5072
-2186.05 -5760.60 1508.53 0.5021
-2186.08 -5760.69 1509.79 0.5026
-2186.06 -5760.64 1511.01 0.5038
-2186.12 -5760.80 1512.29 0.5037
-2186.10 -5760.77 1513.51 0.4965
-2186.08 -5760.70 1514.73 0.4721
-2186.19 -5761.01 1516.05 0.4276
-2186.38 -5761.50 1517.41 0.3651
-2186.37 -5761.47 1518.64 0.2958
-2186.37 -5761.50 1519.88 0.2427
-2185.89 -5760.23 1520.79 0.2191
-2185.70 -5759.72 1521.89 0.2142
-2185.78 -5759.95 1523.18 0.2128
-2186.25 -5761.19 1524.75 0.2126
-2186.01 -5760.54 1525.81 0.2100
-2185.90 -5760.26 1526.97 0.2107
-2185.81 -5760.04 1528.15 0.2101
-2185.73 -5759.80 1529.32 0.2118
-2185.77 -5759.89 1530.58 0.2122
-2185.99 -5760.48 1531.98 0.2137
-2185.79 -5759.96 1533.07 0.2137
-2185.95 -5760.38 1534.42 0.2125
-2185.96 -5760.40 1535.66 0.2116
-2185.87 -5760.19 1536.84 0.2116
-2185.91 -5760.27 1538.10 0.2109
-2185.75 -5759.88 1539.23 0.2099
-2185.89 -5760.25 1540.57 0.2083
-2185.89 -5760.24 1541.80 0.2114
-2186.30 -5761.35 1543.34 0.2113
-2185.71 -5759.80 1544.16 0.2085
-2185.71 -5759.80 1545.39 0.2082
-2185.72 -5759.83 1546.64 0.2090
-2185.74 -5759.88 1547.89 0.2090
-2185.70 -5759.77 1549.10 0.2092
-2185.79 -5760.03 1550.41 0.2102
-2185.80 -5760.05 1551.65 0.2118
-2186.06 -5760.75 1553.08 0.2121
-2185.85 -5760.19 1554.16 0.2146
-2186.04 -5760.69 1555.54 0.2243
-2186.30 -5761.39 1556.97 0.2700
-2186.20 -5761.12 1558.14 0.3395
-2186.00 -5760.61 1559.24 0.4101
-2185.91 -5760.36 1560.41 0.4630
-2185.78 -5760.02 1561.56 0.4954
-2185.76 -5759.98 1562.79 0.5037
-2185.75 -5759.97 1564.03 0.5057
-2185.82 -5760.14 1565.32 0.5072
-2185.85 -5760.23 1566.58 0.5117
-2185.88 -5760.30 1567.84 0.5097
-2185.78 -5760.06 1569.01 0.5097
-2185.80 -5760.09 1570.26 0.5095
-2185.71 -5759.86 1571.44 0.5078
-2185.80 -5760.10 1572.74 0.5045
-2185.84 -5760.21 1574.02 0.5055
-2185.73 -5759.92 1575.18 0.5060
-2185.71 -5759.86 1576.40 0.5060
-2185.75 -5759.96 1577.67 0.5062
-2185.67 -5759.74 1578.85 0.5074
-2185.71 -5759.84 1580.12 0.5078
-2185.74 -5759.93 1581.38 0.5044
-2185.68 -5759.78 1582.58 0.5015
-2185.76 -5759.99 1583.88 0.5000
-2185.88 -5760.32 1585.21 0.5013
-2185.96 -5760.51 1586.50 0.4996
-2185.94 -5760.49 1587.74 0.4974
-2185.94 -5760.48 1588.98 0.4967
-2185.95 -5760.53 1590.23 0.4956
-2185.95 -5760.53 1591.47 0.4993
-2185.93 -5760.49 1592.70 0.4991
-2185.98 -5760.64 1593.99 0.4962
-2185.97 -5760.60 1595.22 0.4966
-2185.95 -5760.57 1596.45 0.4974
-2185.98 -5760.65 1597.71 0.4953
-2185.87 -5760.35 1598.87 0.4972
-2185.89 -5760.41 1600.13 0.5000
-2185.86 -5760.32 1601.35 0.5002
-2185.92 -5760.50 1602.64 0.4967
-2185.95 -5760.58 1603.91 0.4981
-2185.89 -5760.43 1605.11 0.5017
-2185.87 -5760.36 1606.33 0.4973
-2185.86 -5760.34 1607.57 0.4987
-2185.88 -5760.39 1608.83 0.5018
-2185.87 -5760.37 1610.06 0.4970
-2185.75 -5760.06 1611.22 0.4954
-2185.86 -5760.35 1612.55 0.4960
-2185.74 -5760.04 1613.71 0.4976
-2185.69 -5759.93 1614.92 0.4960
-2185.76 -5760.10 1616.21 0.4955
-2185.79 -5760.17 1617.48 0.4963
-2185.77 -5760.13 1618.71 0.4953
-2185.74 -5760.06 1619.94 0.4943
-2185.75 -5760.09 1621.19 0.4965
-2185.82 -5760.29 1622.49 0.4928
-2185.72 -5760.00 1623.65 0.4944
-2185.77 -5760.14 1624.94 0.4981
-2185.75 -5760.09 1626.17 0.4978
-2185.64 -5759.80 1627.33 0.4986
-2185.75 -5760.10 1628.66 0.4996
-2185.73 -5760.05 1629.89 0.4939
-2185.76 -5760.14 1631.16 0.4977
-2185.72 -5760.04 1632.38 0.4989
-2185.61 -5759.74 1633.54 0.4953
-2185.68 -5759.95 1634.84 0.4965
-2185.67 -5759.91 1636.08 0.4983
-2185.75 -5760.11 1637.38 0.4954
-2185.57 -5759.64 1638.49 0.4924
-2185.66 -5759.89 1639.81 0.4938
-2185.59 -5759.71 1641.01 0.4961
-2185.59 -5759.71 1642.25 0.4992
-2185.64 -5759.84 1643.54 0.5008
-2185.65 -5759.88 1644.79 0.5004
-2185.59 -5759.73 1646.00 0.4972
-2185.58 -5759.71 1647.24 0.4946
-2185.61 -5759.78 1648.51 0.4942
-2185.61 -5759.78 1649.75 0.4962
-2185.56 -5759.65 1650.96 0.4961
-2187.81 -5761.64 1297.01 0.5009
-2187.75 -5761.50 1298.19 0.4988
-2187.79 -5761.60 1299.43 0.5016
-2187.76 -5761.53 1300.63 0.5061
-2187.80 -5761.62 1301.87 0.5010
-2187.78 -5761.59 1303.08 0.5023
-2187.79 -5761.61 1304.30 0.5016
-2187.79 -5761.62 1305.52 0.5013
-2187.80 -5761.63 1306.74 0.4962
-2187.79 -5761.62 1307.96 0.4978
-2187.75 -5761.51 1309.15 0.4999
-2187.77 -5761.57 1310.38 0.4990
-2187.76 -5761.54 1311.60 0.4987
-2187.75 -5761.53 1312.81 0.4981
-2187.79 -5761.62 1314.05 0.4984
-2187.85 -5761.79 1315.31 0.4969
-2187.82 -5761.72 1316.52 0.4966
-2187.80 -5761.66 1317.72 0.5004
-2187.78 -5761.61 1318.93 0.4988
-2187.62 -5761.20 1320.05 0.5020
-2187.69 -5761.38 1321.31 0.5056
-2187.63 -5761.22 1322.49 0.5052
-2187.48 -5760.85 1323.62 0.5022
-2187.49 -5760.86 1324.85 0.4998
-2187.49 -5760.86 1326.06 0.5033
-2187.45 -5760.78 1327.26 0.5036
-2187.43 -5760.72 1328.46 0.5081
-2187.44 -5760.74 1329.69 0.5067
-2187.56 -5761.05 1330.98 0.5056
-2187.45 -5760.78 1332.13 0.5084
-2187.54 -5761.01 1333.41 0.5060
-2187.46 -5760.81 1334.58 0.5043
-2187.53 -5761.00 1335.84 0.5045
-2187.53 -5760.99 1337.06 0.5009
-2187.61 -5761.21 1338.33 0.5009
-2187.52 -5760.98 1339.50 0.5048
-2187.50 -5760.92 1340.70 0.5086
-2187.62 -5761.25 1342.00 0.5045
-2187.55 -5761.05 1343.17 0.5020
-2187.58 -5761.16 1344.41 0.5049
-2187.58 -5761.16 1345.63 0.5031
-2187.53 -5761.02 1346.82 0.5031
-2187.60 -5761.20 1348.08 0.5016
-2187.61 -5761.24 1349.31 0.5044
-2187.58 -5761.16 1350.52 0.4993
-2187.57 -5761.14 1351.73 0.4831
-2187.66 -5761.37 1353.01 0.4476
-2187.58 -5761.16 1354.18 0.3905
-2187.75 -5761.63 1355.51 0.3289
-2187.78 -5761.70 1356.74 0.2695
-2187.51 -5761.00 1357.80 0.2297
-2187.38 -5760.66 1358.94 0.2176
-2187.59 -5761.21 1360.29 0.2160
-2187.50 -5760.96 1361.45 0.2148
-2187.41 -5760.73 1362.62 0.2150
-2187.34 -5760.55 1363.80 0.2156
-2187.38 -5760.68 1365.05 0.2139
-2187.65 -5761.38 1366.44 0.2085
-2187.58 -5761.19 1367.62 0.2124
-2187.83 -5761.86 1369.00 0.2118
-2187.59 -5761.23 1370.07 0.2151
-2187.66 -5761.43 1371.34 0.2122
-2187.37 -5760.65 1372.37 0.2136
-2187.86 -5761.95 1373.91 0.2121
-2187.30 -5760.48 1374.78 0.2097
-2187.48 -5760.97 1376.12 0.2094
-2187.57 -5761.21 1377.40 0.2095
-2187.73 -5761.62 1378.72 0.2110
-2187.72 -5761.59 1379.93 0.2109
-2187.45 -5760.90 1380.99 0.2118
-2187.84 -5761.92 1382.46 0.2111
-2187.53 -5761.12 1383.49 0.2104
-2187.56 -5761.20 1384.73 0.2117
-2187.24 -5760.35 1385.75 0.2082
-2187.81 -5761.87 1387.34 0.2104
-2187.44 -5760.91 1388.33 0.2107
-2187.53 -5761.14 1389.61 0.2067
-2187.65 -5761.47 1390.91 0.2093
-2187.41 -5760.83 1391.98 0.2107
-2187.25 -5760.42 1393.10 0.2097
-2187.53 -5761.16 1394.50 0.2106
-2187.33 -5760.62 1395.60 0.2096
-2187.29 -5760.52 1396.80 0.2114
-2187.40 -5760.81 1398.09 0.2138
-2187.40 -5760.83 1399.32 0.2101
-2187.60 -5761.35 1400.67 0.2133
-2187.38 -5760.78 1401.75 0.2143
-2187.40 -5760.84 1402.99 0.2160
-2187.28 -5760.54 1404.14 0.2156
-2187.34 -5760.69 1405.41 0.2093
-2187.59 -5761.35 1406.79 0.2107
-2187.22 -5760.38 1407.78 0.2117
-2187.59 -5761.35 1409.24 0.2111
-2187.41 -5760.89 1410.36 0.2131
-2187.55 -5761.25 1412.90 0.2093
-2187.64 -5761.50 1414.19 0.2123
-2187.53 -5761.19 1415.34 0.2149
-2187.48 -5761.07 1416.53 0.2125
-2187.50 -5761.12 1417.77 0.2125
-2187.64 -5761.48 1419.09 0.2125
-2187.38 -5760.79 1420.14 0.2072
-2187.41 -5760.88 1421.39 0.2111
-2187.63 -5761.48 1422.76 0.2144
-2187.55 -5761.27 1423.94 0.2140
-2187.45 -5761.03 1425.11 0.2157
-2187.54 -5761.27 1426.39 0.2191
-2187.63 -5761.50 1427.68 0.2285
-2187.90 -5762.23 1429.08 0.2667
-2187.79 -5761.95 1430.24 0.3332
-2187.73 -5761.79 1431.43 0.4038
-2187.64 -5761.54 1432.59 0.4632
-2187.63 -5761.52 1433.82 0.4959
-2187.63 -5761.53 1435.05 0.5046
-2187.64 -5761.57 1436.28 0.5076
-2187.61 -5761.47 1437.49 0.5095
-2187.59 -5761.43 1438.70 0.5053
-2187.67 -5761.64 1439.98 0.5035
-2187.61 -5761.49 1441.18 0.5014
-2187.59 -5761.43 1442.39 0.5043
-2187.64 -5761.57 1443.65 0.5053
-2187.55 -5761.34 1444.82 0.5058
-2187.62 -5761.53 1446.10 0.5049
-2187.61 -5761.49 1447.32 0.5040
-2187.68 -5761.70 1448.60 0.5028
-2187.58 -5761.42 1449.76 0.5057
-2187.62 -5761.53 1451.02 0.5035
-2187.57 -5761.41 1452.22 0.5023
-2187.58 -5761.43 1453.45 0.5062
-2187.64 -5761.60 1454.73 0.5042
-2187.59 -5761.48 1455.92 0.5039
-2187.64 -5761.60 1457.18 0.5074
-2187.60 -5761.51 1458.39 0.5057
-2187.57 -5761.44 1459.61 0.5065
-2187.60 -5761.50 1460.85 0.5099
-2187.54 -5761.36 1462.05 0.5087
-2187.60 -5761.51 1463.32 0.5081
-2187.62 -5761.58 1464.57 0.5091
-2187.58 -5761.46 1465.77 0.5054
-2187.51 -5761.29 1466.96 0.5019
-2187.48 -5761.22 1468.17 0.5004
-2187.50 -5761.28 1469.42 0.5047
-2187.48 -5761.21 1470.63 0.5022
-2187.50 -5761.28 1471.89 0.5019
-2187.63 -5761.61 1473.20 0.5044
-2187.51 -5761.30 1474.36 0.5068
-2187.52 -5761.34 1475.60 0.5045
-2187.55 -5761.42 1476.85 0.5032
-2187.59 -5761.51 1478.10 0.5057
-2187.59 -5761.53 1479.34 0.5042
-2187.47 -5761.21 1480.49 0.5011
-2187.52 -5761.34 1481.76 0.5043
-2187.56 -5761.46 1483.02 0.5066
-2187.55 -5761.42 1484.24 0.5040
-2187.58 -5761.52 1485.50 0.5045
-2187.53 -5761.37 1486.69 0.5058
-2187.51 -5761.33 1487.91 0.5042
-2187.40 -5761.06 1489.08 0.5036
-2187.49 -5761.29 1490.37 0.5060
-2187.54 -5761.43 1491.64 0.5057
-2187.55 -5761.45 1492.88 0.5070
-2187.46 -5761.21 1494.05 0.5058
-2187.54 -5761.44 1495.34 0.5078
-2187.59 -5761.58 1496.61 0.5081
-2187.56 -5761.49 1497.82 0.5085
-2187.48 -5761.29 1499.00 0.5069
-2187.45 -5761.20 1500.21 0.5060
-2187.47 -5761.26 1501.46 0.5065
-2187.47 -5761.27 1502.69 0.5057
-2187.51 -5761.37 1503.95 0.5030
-2187.40 -5761.07 1505.11 0.5072
-2187.45 -5761.21 1506.38 0.5072
-2187.39 -5761.07 1507.57 0.5049
-2187.42 -5761.13 1508.82 0.5025
-2187.37 -5761.02 1510.03 0.5007
-2187.43 -5761.17 1511.30 0.4997
-2187.38 -5761.05 1512.50 0.5030
-2187.48 -5761.31 1513.80 0.5028
-2187.40 -5761.10 1514.98 0.4963
-2187.40 -5761.10 1516.22 0.4785
-2187.42 -5761.16 1517.47 0.4416
-2187.65 -5761.78 1518.87 0.3818
-2187.76 -5762.08 1520.18 0.3116
-2187.71 -5761.94 1521.38 0.2550
-2187.65 -5761.78 1522.58 0.2248
-2187.40 -5761.13 1523.64 0.2152
-2187.51 -5761.43 1524.95 0.2137
-2187.15 -5760.47 1525.94 0.2127
-2187.26 -5760.77 1527.25 0.2143
-2187.20 -5760.60 1528.44 0.2118
-2187.35 -5761.02 1529.79 0.2115
-2186.90 -5759.84 1530.71 0.2122
-2187.34 -5760.97 1532.25 0.2106
-2187.47 -5761.34 1533.58 0.2106
-2187.39 -5761.12 1534.76 0.2123
-2187.30 -5760.90 1535.94 0.2127
-2187.42 -5761.20 1537.26 0.2111
-2187.17 -5760.55 1538.32 0.2110
-2187.21 -5760.65 1539.58 0.2104
-2186.94 -5759.95 1540.63 0.2085
-2187.04 -5760.22 1541.94 0.2142
-2187.02 -5760.17 1543.16 0.2092
-2186.98 -5760.08 1544.38 0.2071
-2187.04 -5760.23 1545.66 0.2087
-2187.22 -5760.70 1547.02 0.2080
-2187.05 -5760.26 1548.14 0.2067
-2187.20 -5760.65 1549.48 0.2117
-2187.23 -5760.74 1550.74 0.2097
-2187.28 -5760.86 1552.01 0.2126
-2187.38 -5761.14 1553.33 0.2155
-2187.47 -5761.38 1554.63 0.2298
-2187.56 -5761.62 1555.93 0.2750
-2187.44 -5761.32 1557.09 0.3475
-2187.44 -5761.30 1558.32 0.4158
-2187.26 -5760.83 1559.44 0.4688
-2187.17 -5760.59 1560.61 0.4957
-2187.21 -5760.71 1561.88 0.5024
-2187.16 -5760.58 1563.08 0.5036
-2187.17 -5760.62 1564.34 0.5053
-2187.14 -5760.53 1565.55 0.5085
-2187.12 -5760.48 1566.78 0.5105
-2187.25 -5760.82 1568.11 0.5105
-2187.16 -5760.61 1569.29 0.5110
-2187.11 -5760.47 1570.49 0.5082
-2187.12 -5760.49 1571.74 0.5046
-2187.06 -5760.35 1572.94 0.5023
-2187.09 -5760.44 1574.20 0.5037
-2187.12 -5760.50 1575.46 0.5045
-2187.04 -5760.29 1576.65 0.5048
-2187.08 -5760.41 1577.92 0.5061
-2187.04 -5760.31 1579.14 0.5086
-2187.05 -5760.32 1580.38 0.5069
-2187.09 -5760.44 1581.65 0.5048
-2187.18 -5760.69 1582.96 0.5018
-2187.24 -5760.85 1584.25 0.4958
-2187.30 -5761.00 1585.53 0.4985
-2187.40 -5761.28 1586.85 0.4998
-2187.33 -5761.10 1588.04 0.5012
-2187.33 -5761.08 1589.28 0.4997
-2187.27 -5760.94 1590.48 0.4951
-2187.34 -5761.11 1591.77 0.4955
-2187.24 -5760.86 1592.94 0.4992
-2187.30 -5761.01 1594.23 0.5002
-2187.32 -5761.08 1595.49 0.4999
-2187.32 -5761.09 1596.73 0.5002
-2187.35 -5761.15 1597.99 0.4944
-2187.21 -5760.80 1599.14 0.4980
-2187.27 -5760.94 1600.42 0.4992
-2187.21 -5760.80 1601.63 0.5023
-2187.23 -5760.86 1602.88 0.4982
-2187.16 -5760.68 1604.08 0.4999
-2187.17 -5760.70 1605.33 0.4999
-2187.17 -5760.72 1606.57 0.4996
-2187.15 -5760.67 1607.80 0.4985
-2187.12 -5760.58 1609.02 0.5017
-2187.19 -5760.76 1610.32 0.4993
-2187.15 -5760.68 1611.54 0.4958
-2187.21 -5760.83 1612.82 0.4970
-2187.14 -5760.66 1614.02 0.4965
-2187.14 -5760.64 1615.26 0.4978
-2187.11 -5760.56 1616.49 0.4977
-2187.13 -5760.62 1617.75 0.4970
-2187.12 -5760.60 1618.99 0.4969
-2187.11 -5760.58 1620.23 0.4948
-2187.09 -5760.52 1621.46 0.4980
-2187.05 -5760.43 1622.69 0.4950
-2187.07 -5760.49 1623.95 0.4940
-2187.08 -5760.51 1625.20 0.4943
-2187.11 -5760.60 1626.48 0.4967
-2187.12 -5760.63 1627.73 0.4977
-2187.04 -5760.42 1628.92 0.4996
-2187.05 -5760.45 1630.17 0.4976
-2187.09 -5760.55 1631.45 0.4962
-2187.05 -5760.46 1632.66 0.5006
-2187.05 -5760.46 1633.91 0.4950
-2186.97 -5760.23 1635.09 0.4970
-2186.99 -5760.31 1636.36 0.4982
-2187.02 -5760.39 1637.63 0.4940
-2186.98 -5760.28 1638.84 0.4918
-2186.89 -5760.04 1640.02 0.4951
-2186.99 -5760.30 1641.34 0.4967
-2186.88 -5760.03 1642.51 0.4986
-2187.01 -5760.36 1643.85 0.4990
-2187.00 -5760.36 1645.10 0.4970
-2187.03 -5760.42 1646.36 0.4944
-2186.97 -5760.26 1647.57 0.4952
-2186.92 -5760.14 1648.78 0.4949
-2186.94 -5760.21 1650.04 0.4928
-2186.98 -5760.31 1651.32 0.4948
-2189.25 -5762.39 1298.08 0.4996
-2189.20 -5762.27 1299.27 0.5063
-2189.20 -5762.28 1300.49 0.5085
-2189.21 -5762.30 1301.71 0.5045
-2189.18 -5762.23 1302.91 0.4997
-2189.20 -5762.28 1304.14 0.4973
-2189.20 -5762.27 1305.36 0.5004
-2189.22 -5762.33 1306.59 0.4995
-2189.20 -5762.30 1307.80 0.5004
-2189.26 -5762.44 1309.05 0.5005
-2189.31 -5762.59 1310.30 0.5012
-2189.21 -5762.32 1311.45 0.4994
-2189.24 -5762.40 1312.69 0.4968
-2189.31 -5762.58 1313.95 0.4987
-2189.21 -5762.33 1315.11 0.4991
-2189.27 -5762.48 1316.36 0.4995
-2189.27 -5762.49 1317.58 0.5024
-2189.20 -5762.32 1318.76 0.5011
-2189.23 -5762.41 1320.00 0.5023
-2189.16 -5762.23 1321.17 0.5058
-2189.15 -5762.19 1322.38 0.5058
-2189.06 -5761.96 1323.55 0.5009
-2188.99 -5761.78 1324.73 0.4977
-2189.04 -5761.91 1325.97 0.5004
-2188.97 -5761.73 1327.15 0.5024
-2188.86 -5761.45 1328.30 0.5037
-2188.84 -5761.40 1329.51 0.5026
-2188.97 -5761.73 1330.81 0.5026
-2188.86 -5761.45 1331.96 0.5045
-2188.91 -5761.59 1333.21 0.5012
-2188.85 -5761.43 1334.39 0.5021
-2188.91 -5761.58 1335.65 0.5029
-2188.93 -5761.64 1336.88 0.5029
-2188.91 -5761.60 1338.09 0.5049
-2188.95 -5761.71 1339.33 0.5029
-2188.94 -5761.67 1340.55 0.5081
-2188.94 -5761.69 1341.77 0.5065
-2189.07 -5762.03 1343.07 0.5036
-2188.97 -5761.76 1344.22 0.5050
-2188.96 -5761.75 1345.44 0.5036
-2188.96 -5761.76 1346.66 0.5049
-2188.91 -5761.63 1347.85 0.5039
-2188.95 -5761.72 1349.10 0.5061
-2189.01 -5761.89 1350.36 0.5065
-2188.98 -5761.81 1351.56 0.5066
-2189.02 -5761.91 1352.80 0.4995
-2189.05 -5761.99 1354.04 0.4803
-2189.12 -5762.19 1355.31 0.4419
-2189.17 -5762.32 1356.56 0.3859
-2189.22 -5762.46 1357.82 0.3223
-2188.99 -5761.86 1358.89 0.2585
-2188.96 -5761.77 1360.10 0.2234
-2189.14 -5762.26 1361.44 0.2184
-2188.71 -5761.13 1362.39 0.2149
-2188.97 -5761.81 1363.78 0.2133
-2188.97 -5761.82 1365.00 0.2157
-2188.87 -5761.56 1366.16 0.2131
-2188.84 -5761.47 1367.37 0.2127
-2188.96 -5761.80 1368.67 0.2148
-2188.82 -5761.43 1369.80 0.2147
-2188.99 -5761.89 1371.14 0.2113
-2188.61 -5760.89 1372.12 0.2100
-2188.96 -5761.80 1373.56 0.2127
-2189.26 -5762.59 1374.97 0.2092
-2188.84 -5761.50 1375.94 0.2113
-2188.74 -5761.25 1377.10 0.2100
-2188.97 -5761.83 1378.46 0.2084
-2189.06 -5762.08 1379.74 0.2101
-2189.13 -5762.28 1381.01 0.2104
-2188.90 -5761.66 1382.09 0.2107
-2188.79 -5761.38 1383.24 0.2097
-2188.87 -5761.59 1384.52 0.2113
-2189.09 -5762.18 1385.88 0.2101
-2188.79 -5761.40 1386.92 0.2118
-2188.84 -5761.52 1388.17 0.2121
-2189.01 -5761.96 1389.50 0.2115
-2188.97 -5761.87 1390.71 0.2113
-2189.13 -5762.29 1392.03 0.2074
-2188.91 -5761.72 1393.12 0.2113
-2188.73 -5761.25 1394.23 0.2083
-2188.89 -5761.68 1395.56 0.2090
-2188.91 -5761.74 1396.79 0.2094
-2188.93 -5761.78 1398.03 0.2123
-2188.86 -5761.60 1399.21 0.2117
-2188.92 -5761.77 1400.48 0.2061
-2188.91 -5761.75 1401.69 0.2074
-2189.02 -5762.02 1402.98 0.2137
-2189.11 -5762.27 1404.27 0.2141
-2188.86 -5761.63 1405.34 0.2116
-2188.83 -5761.54 1406.54 0.2112
-2188.90 -5761.72 1407.81 0.2111
-2188.88 -5761.68 1409.02 0.2112
-2189.02 -5762.04 1410.33 0.2105
-2188.84 -5761.58 1411.44 0.2125
-2188.75 -5761.35 1412.61 0.2104
-2188.89 -5761.73 1413.93 0.2104
-2188.96 -5761.90 1415.19 0.2103
-2188.84 -5761.58 1416.34 0.2150
-2188.86 -5761.63 1417.58 0.2140
-2188.90 -5761.76 1418.84 0.2124
-2189.12 -5762.33 1420.21 0.2112
-2188.76 -5761.40 1421.20 0.2105
-2189.00 -5762.01 1422.58 0.2152
-2188.93 -5761.85 1423.77 0.2168
-2189.11 -5762.31 1425.11 0.2184
-2189.19 -5762.53 1426.39 0.2237
-2189.42 -5763.14 1427.77 0.2605
-2189.29 -5762.79 1428.91 0.3277
-2189.16 -5762.45 1430.05 0.3978
-2189.15 -5762.44 1431.27 0.4589
-2189.02 -5762.10 1432.42 0.4955
-2189.04 -5762.16 1433.66 0.5057
-2188.99 -5762.02 1434.86 0.5041
-2189.09 -5762.30 1436.15 0.5029
-2189.10 -5762.33 1437.39 0.5060
-2189.05 -5762.19 1438.58 0.5037
-2189.06 -5762.22 1439.82 0.5030
-2189.07 -5762.24 1441.05 0.5019
-2189.01 -5762.09 1442.24 0.5024
-2189.06 -5762.23 1443.50 0.5056
-2188.99 -5762.04 1444.68 0.5057
-2188.99 -5762.06 1445.91 0.5060
-2189.00 -5762.07 1447.14 0.5042
-2189.09 -5762.31 1448.43 0.5058
-2189.01 -5762.12 1449.61 0.5078
-2189.15 -5762.48 1450.93 0.5070
-2189.02 -5762.15 1452.07 0.5068
-2189.01 -5762.12 1453.29 0.5067
-2188.98 -5762.04 1454.50 0.5060
-2189.02 -5762.16 1455.76 0.5042
-2188.97 -5762.02 1456.95 0.5036
-2189.01 -5762.14 1458.21 0.5033
-2188.96 -5762.01 1459.41 0.5040
-2189.02 -5762.16 1460.68 0.5077
-2189.01 -5762.15 1461.91 0.5108
-2189.00 -5762.10 1463.13 0.5095
-2188.94 -5761.95 1464.32 0.5068
-2189.06 -5762.29 1465.64 0.5060
-2189.02 -5762.18 1466.84 0.5066
-2188.98 -5762.08 1468.05 0.5047
-2189.06 -5762.29 1469.33 0.5071
-2189.03 -5762.20 1470.54 0.5063
-2188.99 -5762.11 1471.75 0.5052
-2188.94 -5761.98 1472.95 0.5043
-2189.03 -5762.21 1474.24 0.5073
-2188.98 -5762.09 1475.44 0.5067
-2188.99 -5762.11 1476.67 0.5055
-2189.03 -5762.22 1477.93 0.5038
-2188.97 -5762.08 1479.13 0.5037
-2189.03 -5762.22 1480.40 0.5021
-2189.00 -5762.16 1481.61 0.5066
-2188.97 -5762.08 1482.82 0.5072
-2188.93 -5761.98 1484.03 0.5064
-2188.93 -5761.98 1485.26 0.5047
-2189.02 -5762.23 1486.56 0.5058
-2189.00 -5762.16 1487.77 0.5022
-2188.89 -5761.89 1488.93 0.5034
-2188.98 -5762.11 1490.22 0.5051
-2188.94 -5762.01 1491.43 0.5084
-2189.01 -5762.21 1492.71 0.5054
-2188.96 -5762.09 1493.91 0.5059
-2188.99 -5762.16 1495.16 0.5063
-2188.91 -5761.96 1496.34 0.5056
-2188.94 -5762.05 1497.60 0.5060
-2188.97 -5762.13 1498.85 0.5059
-2188.84 -5761.78 1500.00 0.5040
-2188.96 -5762.10 1501.32 0.5048
-2188.85 -5761.82 1502.48 0.5033
-2188.90 -5761.94 1503.74 0.5017
-2188.90 -5761.96 1504.98 0.5039
-2188.85 -5761.83 1506.18 0.5066
-2188.86 -5761.87 1507.43 0.5047
-2188.93 -5762.05 1508.71 0.5040
-2188.89 -5761.95 1509.92 0.5023
-2188.95 -5762.12 1511.20 0.5004
-2188.88 -5761.93 1512.38 0.5004
-2188.86 -5761.88 1513.61 0.5024
-2188.86 -5761.89 1514.85 0.5031
-2188.78 -5761.69 1516.03 0.5019
-2188.91 -5762.01 1517.35 0.4977
-2188.97 -5762.18 1518.63 0.4783
-2189.01 -5762.28 1519.90 0.4368
-2189.00 -5762.27 1521.13 0.3723
-2189.35 -5763.18 1522.61 0.3010
-2189.08 -5762.50 1523.67 0.2445
-2188.71 -5761.51 1524.64 0.2223
-2189.04 -5762.38 1526.11 0.2175
-2188.92 -5762.08 1527.27 0.2126
-2188.74 -5761.61 1528.38 0.2111
-2188.78 -5761.72 1529.65 0.2120
-2188.82 -5761.83 1530.91 0.2130
-2188.67 -5761.43 1532.04 0.2130
-2188.69 -5761.49 1533.29 0.2100
-2188.55 -5761.12 1534.43 0.2122
-2188.52 -5761.04 1535.65 0.2109
-2188.43 -5760.80 1536.82 0.2102
-2188.64 -5761.36 1538.21 0.2127
-2188.74 -5761.64 1539.52 0.2102
-2188.62 -5761.33 1540.67 0.2128
-2188.44 -5760.87 1541.78 0.2130
-2188.69 -5761.52 1543.20 0.2107
-2188.83 -5761.90 1544.54 0.2082
-2188.59 -5761.27 1545.60 0.2086
-2188.72 -5761.61 1546.93 0.2104
-2188.74 -5761.66 1548.18 0.2106
-2188.56 -5761.18 1549.29 0.2144
-2188.73 -5761.63 1550.65 0.2149
-2188.40 -5760.78 1551.66 0.2136
-2188.53 -5761.13 1552.99 0.2277
-2188.72 -5761.62 1554.36 0.2700
-2188.96 -5762.26 1555.77 0.3407
-2188.83 -5761.93 1556.92 0.4091
-2188.63 -5761.40 1558.01 0.4685
-2188.70 -5761.57 1559.30 0.4994
-2188.70 -5761.55 1560.53 0.5038
-2188.63 -5761.38 1561.73 0.5042
-2188.61 -5761.31 1562.95 0.5078
-2188.58 -5761.25 1564.17 0.5046
-2188.61 -5761.34 1565.43 0.5066
-2188.56 -5761.21 1566.64 0.5106
-2188.62 -5761.37 1567.92 0.5070
-2188.55 -5761.19 1569.11 0.5064
-2188.58 -5761.26 1570.37 0.5072
-2188.54 -5761.18 1571.59 0.5035
-2188.56 -5761.22 1572.84 0.5042
-2188.51 -5761.10 1574.04 0.5023
-2188.41 -5760.84 1575.21 0.5024
-2188.55 -5761.22 1576.56 0.5066
-2188.48 -5761.04 1577.75 0.5066
-2188.51 -5761.13 1579.02 0.5060
-2188.55 -5761.23 1580.28 0.5043
-2188.62 -5761.42 1581.58 0.5012
-2188.75 -5761.77 1582.91 0.4997
-2188.84 -5762.02 1584.22 0.4998
-2188.77 -5761.83 1585.41 0.4996
-2188.70 -5761.60 1586.59 0.4998
-2188.77 -5761.79 1587.89 0.5023
-2188.78 -5761.83 1589.14 0.5033
-2188.70 -5761.62 1590.32 0.4976
-2188.75 -5761.75 1591.60 0.4945
-2188.74 -5761.73 1592.84 0.4968
-2188.73 -5761.70 1594.07 0.5014
-2188.69 -5761.61 1595.29 0.4973
-2188.71 -5761.67 1596.55 0.4980
-2188.71 -5761.67 1597.79 0.4968
-2188.77 -5761.84 1599.08 0.4996
-2188.66 -5761.57 1600.25 0.5014
-2188.66 -5761.57 1601.49 0.5028
-2188.63 -5761.49 1602.71 0.4996
-2188.67 -5761.58 1603.98 0.4992
-2188.61 -5761.44 1605.18 0.5010
-2188.60 -5761.41 1606.42 0.4983
-2188.60 -5761.42 1607.66 0.4972
-2188.57 -5761.37 1608.89 0.5006
-2188.57 -5761.36 1610.13 0.5002
-2188.56 -5761.33 1611.36 0.4937
-2188.55 -5761.32 1612.61 0.4971
-2188.53 -5761.26 1613.83 0.4940
-2188.56 -5761.32 1615.10 0.4953
-2188.61 -5761.47 1616.38 0.4954
-2188.49 -5761.15 1617.54 0.4958
-2188.54 -5761.27 1618.81 0.4972
-2188.60 -5761.42 1620.10 0.4951
-2188.57 -5761.36 1621.33 0.4988
-2188.62 -5761.49 1622.61 0.4979
-2188.51 -5761.18 1623.77 0.4959
-2188.52 -5761.21 1625.02 0.4940
-2188.52 -5761.23 1626.27 0.4928
-2188.49 -5761.14 1627.49 0.4970
-2188.54 -5761.28 1628.78 0.4982
-2188.49 -5761.16 1629.99 0.4979
-2188.49 -5761.16 1631.23 0.4937
-2188.58 -5761.39 1632.55 0.4968
-2188.50 -5761.18 1633.73 0.4986
-2188.48 -5761.13 1634.96 0.4962
-2188.46 -5761.08 1636.20 0.4960
-2188.46 -5761.10 1637.45 0.4925
-2188.44 -5761.03 1638.68 0.4926
-2188.35 -5760.79 1639.86 0.4935
-2188.37 -5760.87 1641.12 0.4959
-2188.44 -5761.04 1642.42 0.4967
-2188.38 -5760.92 1643.63 0.4981
-2188.39 -5760.95 1644.88 0.4969
-2188.40 -5761.00 1646.14 0.4929
-2188.37 -5760.93 1647.37 0.4904
-2188.39 -5760.96 1648.63 0.4872
-2188.36 -5760.90 1651.10 0.4967
0 0 0 0.0002
-2190.57 -5762.73 1298.23 0.5011
-2190.71 -5763.11 1299.54 0.5049
-2190.60 -5762.82 1300.69 0.5063
-2190.60 -5762.83 1301.91 0.5033
-2190.62 -5762.88 1303.14 0.5006
-2190.64 -5762.93 1304.37 0.4956
-2190.60 -5762.83 1305.56 0.4983
-2190.60 -5762.83 1306.78 0.5034
-2190.64 -5762.95 1308.02 0.5011
-2190.55 -5762.71 1309.18 0.5023
-2190.58 -5762.81 1310.42 0.5009
-2190.63 -5762.94 1311.67 0.4989
-2190.66 -5763.01 1312.90 0.4992
-2190.71 -5763.14 1314.15 0.5005
-2190.56 -5762.75 1315.28 0.4995
-2190.63 -5762.94 1316.54 0.4993
-2190.63 -5762.94 1317.76 0.5031
-2190.64 -5762.96 1318.99 0.5033
-2190.65 -5763.01 1320.22 0.5024
-2190.57 -5762.80 1321.39 0.5026
-2190.57 -5762.80 1322.61 0.5041
-2190.55 -5762.75 1323.82 0.5008
-2190.55 -5762.75 1325.04 0.4971
-2190.39 -5762.33 1326.17 0.5005
-2190.35 -5762.24 1327.37 0.5005
-2190.24 -5761.94 1328.52 0.5028
-2190.29 -5762.09 1329.77 0.5012
-2190.28 -5762.05 1330.98 0.5038
-2190.38 -5762.32 1332.27 0.5030
-2190.28 -5762.07 1333.43 0.5013
-2190.25 -5761.99 1334.63 0.5009
-2190.39 -5762.36 1335.94 0.5018
-2190.31 -5762.14 1337.11 0.5034
-2190.32 -5762.17 1338.33 0.5040
-2190.29 -5762.10 1339.53 0.5043
-2190.39 -5762.36 1340.81 0.5065
-2190.34 -5762.23 1342.01 0.5099
-2190.29 -5762.10 1343.19 0.5089
-2190.44 -5762.51 1344.51 0.5068
-2190.39 -5762.39 1345.70 0.5044
-2190.43 -5762.49 1346.95 0.5012
-2190.40 -5762.40 1348.15 0.5051
-2190.41 -5762.43 1349.37 0.5070
-2190.37 -5762.34 1350.58 0.5075
-2190.34 -5762.27 1351.78 0.5063
-2190.40 -5762.42 1353.04 0.5045
-2190.42 -5762.47 1354.27 0.5023
-2190.43 -5762.50 1355.50 0.4888
-2190.48 -5762.63 1356.75 0.4594
-2190.60 -5762.96 1358.05 0.4085
-2190.76 -5763.39 1359.37 0.3440
-2190.56 -5762.86 1360.47 0.2787
-2190.25 -5762.05 1361.50 0.2346
-2190.50 -5762.71 1362.88 0.2206
-2190.37 -5762.36 1364.02 0.2175
-2190.19 -5761.90 1365.13 0.2144
-2190.45 -5762.57 1366.51 0.2142
-2190.29 -5762.17 1367.64 0.2154
-2190.32 -5762.25 1368.88 0.2133
-2190.21 -5761.96 1370.03 0.2134
-2190.53 -5762.80 1371.45 0.2119
-2190.52 -5762.77 1372.67 0.2143
-2190.23 -5762.01 1373.71 0.2115
-2190.54 -5762.83 1375.13 0.2105
-2190.32 -5762.25 1376.21 0.2113
-2190.48 -5762.69 1377.54 0.2102
-2190.34 -5762.31 1378.68 0.2101
-2190.42 -5762.54 1379.95 0.2114
-2190.21 -5761.99 1381.04 0.2102
-2190.40 -5762.49 1382.39 0.2107
-2190.24 -5762.06 1383.51 0.2087
-2190.43 -5762.57 1384.85 0.2147
-2190.46 -5762.64 1386.09 0.2097
-2190.29 -5762.20 1387.21 0.2095
-2190.55 -5762.90 1388.60 0.2098
-2190.15 -5761.85 1389.58 0.2104
-2190.03 -5761.53 1390.72 0.2135
-2190.36 -5762.41 1392.16 0.2119
-2190.50 -5762.77 1393.47 0.2132
-2190.54 -5762.88 1394.73 0.2105
-2190.43 -5762.60 1395.88 0.2097
-2190.57 -5762.98 1397.20 0.2084
-2190.25 -5762.12 1398.22 0.2105
-2190.45 -5762.66 1399.57 0.2117
-2190.70 -5763.30 1400.96 0.2097
-2190.51 -5762.82 1402.06 0.2080
-2190.26 -5762.16 1403.13 0.2102
-2190.16 -5761.90 1404.29 0.2085
-2190.36 -5762.43 1405.64 0.2130
-2190.19 -5762.00 1406.76 0.2097
-2190.46 -5762.69 1408.16 0.2095
-2190.39 -5762.53 1409.34 0.2096
-2190.60 -5763.06 1410.70 0.2106
-2190.58 -5763.04 1411.91 0.2112
-2190.62 -5763.14 1413.17 0.2085
-2190.27 -5762.20 1414.16 0.2109
-2190.32 -5762.36 1415.42 0.2102
-2190.46 -5762.72 1416.74 0.2137
-2190.35 -5762.45 1417.90 0.2135
-2190.38 -5762.51 1419.14 0.2116
-2190.55 -5762.96 1420.48 0.2113
-2190.36 -5762.47 1421.58 0.2137
-2190.35 -5762.45 1422.81 0.2162
-2190.70 -5763.38 1424.26 0.2213
-2190.55 -5762.98 1425.39 0.2273
-2190.61 -5763.13 1426.65 0.2658
-2190.66 -5763.26 1427.91 0.3354
-2190.58 -5763.05 1429.09 0.4086
-2190.58 -5763.07 1430.32 0.4626
-2190.32 -5762.40 1431.38 0.4951
-2190.46 -5762.76 1432.70 0.5034
-2190.50 -5762.86 1433.95 0.5057
-2190.49 -5762.84 1435.18 0.5043
-2190.51 -5762.89 1436.42 0.5046
-2190.45 -5762.75 1437.61 0.5035
-2190.38 -5762.56 1438.79 0.5019
-2190.40 -5762.61 1440.04 0.5042
-2190.45 -5762.75 1441.30 0.5021
-2190.48 -5762.84 1442.55 0.5008
-2190.44 -5762.74 1443.75 0.5016
-2190.42 -5762.69 1444.97 0.5055
-2190.43 -5762.71 1446.21 0.5077
-2190.45 -5762.76 1447.45 0.5079
-2190.40 -5762.64 1448.65 0.5075
-2190.45 -5762.76 1449.91 0.5080
-2190.42 -5762.69 1451.12 0.5084
-2190.43 -5762.72 1452.36 0.5076
-2190.47 -5762.84 1453.62 0.5089
-2190.40 -5762.66 1454.80 0.5094
-2190.54 -5763.01 1456.12 0.5066
-2190.44 -5762.76 1457.29 0.5054
-2190.36 -5762.54 1458.46 0.5037
-2190.42 -5762.70 1459.74 0.5033
-2190.35 -5762.53 1460.92 0.5052
-2190.41 -5762.70 1462.20 0.5068
-2190.48 -5762.89 1463.47 0.5074
-2190.41 -5762.70 1464.66 0.5064
-2190.36 -5762.56 1465.85 0.5048
-2190.34 -5762.53 1467.07 0.5050
-2190.38 -5762.62 1468.33 0.5065
-2190.37 -5762.60 1469.55 0.5070
-2190.41 -5762.70 1470.81 0.5049
-2190.42 -5762.75 1472.05 0.5052
-2190.32 -5762.47 1473.22 0.5038
-2190.33 -5762.52 1474.46 0.5026
-2190.36 -5762.59 1475.72 0.5019
-2190.38 -5762.65 1476.96 0.5034
-2190.35 -5762.58 1478.18 0.5050
-2190.37 -5762.62 1479.42 0.5037
-2190.43 -5762.80 1480.70 0.5045
-2190.42 -5762.77 1481.93 0.5068
-2190.33 -5762.54 1483.11 0.5055
-2190.35 -5762.59 1484.35 0.5029
-2190.31 -5762.49 1485.56 0.5061
-2190.43 -5762.81 1486.88 0.5035
-2190.33 -5762.54 1488.04 0.5012
-2190.37 -5762.64 1489.30 0.5003
-2190.36 -5762.63 1490.53 0.5034
-2190.36 -5762.62 1491.76 0.5066
-2190.28 -5762.42 1492.94 0.5077
-2190.37 -5762.66 1494.24 0.5059
-2190.31 -5762.50 1495.43 0.5065
-2190.39 -5762.71 1496.72 0.5058
-2190.32 -5762.54 1497.91 0.5058
-2190.37 -5762.67 1499.17 0.5077
-2190.26 -5762.38 1500.33 0.5043
-2190.34 -5762.60 1501.62 0.5034
-2190.32 -5762.56 1502.85 0.5048
-2190.31 -5762.51 1504.07 0.5044
-2190.30 -5762.49 1505.30 0.5077
-2190.30 -5762.51 1506.54 0.5091
-2190.34 -5762.62 1507.80 0.5085
-2190.31 -5762.54 1509.02 0.5061
-2190.24 -5762.36 1510.21 0.5038
-2190.26 -5762.42 1511.46 0.5019
-2190.21 -5762.29 1512.66 0.5013
-2190.28 -5762.46 1513.94 0.5023
-2190.33 -5762.60 1515.21 0.5081
-2190.24 -5762.37 1516.38 0.5063
-2190.18 -5762.21 1517.58 0.5035
-2190.22 -5762.33 1518.85 0.5010
-2190.30 -5762.53 1520.13 0.4872
-2190.29 -5762.50 1521.36 0.4482
-2190.34 -5762.65 1522.63 0.3875
-2190.54 -5763.17 1524.01 0.3202
-2190.41 -5762.83 1525.16 0.2610
-2190.07 -5761.93 1526.15 0.2267
-2190.31 -5762.58 1527.56 0.2157
-2190.03 -5761.85 1528.60 0.2143
-2190.20 -5762.30 1529.96 0.2136
-2190.25 -5762.42 1531.23 0.2148
-2190.11 -5762.06 1532.37 0.2120
-2190.29 -5762.55 1533.73 0.2140
-2190.10 -5762.03 1534.83 0.2139
-2189.99 -5761.77 1536.00 0.2144
-2189.88 -5761.47 1537.16 0.2129
-2189.86 -5761.42 1538.38 0.2147
-2190.07 -5761.98 1539.77 0.2125
-2190.14 -5762.15 1541.05 0.2116
-2190.28 -5762.52 1542.39 0.2119
-2189.96 -5761.70 1543.41 0.2152
-2190.04 -5761.91 1544.70 0.2128
-2189.99 -5761.77 1545.90 0.2120
-2190.07 -5761.99 1547.20 0.2102
-2189.96 -5761.71 1548.36 0.2123
-2190.09 -5762.05 1549.69 0.2164
-2189.86 -5761.44 1550.77 0.2206
-2190.02 -5761.87 1552.12 0.2321
-2190.34 -5762.71 1553.59 0.2832
-2190.41 -5762.90 1554.88 0.3526
-2190.23 -5762.44 1555.99 0.4203
-2190.16 -5762.24 1557.18 0.4729
-2190.08 -5762.03 1558.36 0.5021
-2190.02 -5761.87 1559.56 0.5068
-2190.03 -5761.92 1560.81 0.5084
-2190.06 -5761.99 1562.06 0.5058
-2189.99 -5761.83 1563.26 0.5060
-2189.97 -5761.77 1564.48 0.5037
-2190.02 -5761.91 1565.76 0.5040
-2189.94 -5761.70 1566.94 0.5083
-2189.97 -5761.78 1568.20 0.5066
-2190.00 -5761.87 1569.46 0.5058
-2190.01 -5761.88 1570.70 0.5056
-2189.96 -5761.74 1571.91 0.5045
-2189.93 -5761.68 1573.13 0.5040
-2189.95 -5761.74 1574.39 0.5031
-2189.84 -5761.45 1575.55 0.5010
-2189.91 -5761.65 1576.85 0.5011
-2190.00 -5761.87 1578.15 0.5070
-2190.00 -5761.88 1579.40 0.5042
-2190.04 -5761.98 1580.67 0.4990
-2190.19 -5762.38 1582.02 0.4984
-2190.17 -5762.33 1583.25 0.4965
-2190.26 -5762.58 1584.56 0.5027
-2190.17 -5762.36 1585.74 0.5010
-2190.18 -5762.36 1586.98 0.4977
-2190.14 -5762.27 1588.20 0.4982
-2190.21 -5762.47 1589.50 0.4999
-2190.07 -5762.09 1590.63 0.4950
-2190.09 -5762.16 1591.90 0.4935
-2190.21 -5762.48 1593.23 0.4950
-2190.09 -5762.15 1594.38 0.4987
-2190.17 -5762.37 1595.68 0.5001
-2190.07 -5762.11 1596.85 0.4982
-2190.11 -5762.24 1598.13 0.4975
-2190.10 -5762.20 1599.36 0.4951
-2190.14 -5762.31 1600.64 0.4978
-2190.09 -5762.19 1601.85 0.5031
-2190.15 -5762.34 1603.13 0.4999
-2190.05 -5762.09 1604.31 0.5012
-2190.02 -5762.01 1605.53 0.4984
-2190.01 -5761.98 1606.76 0.4933
-2189.98 -5761.92 1607.99 0.4965
-2190.04 -5762.08 1609.28 0.4991
-2189.99 -5761.95 1610.49 0.4963
-2189.96 -5761.88 1611.71 0.4951
-2190.02 -5762.04 1613.00 0.4945
-2189.95 -5761.84 1614.19 0.4925
-2189.90 -5761.72 1615.40 0.4903
-2189.98 -5761.94 1616.71 0.4942
-2189.98 -5761.93 1617.95 0.4919
-2189.98 -5761.94 1619.20 0.4942
-2189.91 -5761.76 1620.39 0.4956
-2189.96 -5761.90 1621.68 0.4992
-2189.98 -5761.96 1622.94 0.5029
-2189.90 -5761.75 1624.13 0.4979
-2189.99 -5761.99 1625.44 0.4900
-2189.97 -5761.93 1626.67 0.4890
-2189.94 -5761.87 1627.90 0.4930
-2189.87 -5761.69 1629.10 0.4951
-2189.87 -5761.68 1630.34 0.4973
-2189.85 -5761.65 1631.58 0.4951
-2189.85 -5761.64 1632.82 0.4974
-2189.87 -5761.71 1634.09 0.4984
-2189.84 -5761.63 1635.31 0.5006
-2189.83 -5761.60 1636.55 0.4951
-2189.86 -5761.68 1637.82 0.4935
-2189.83 -5761.60 1639.05 0.4894
-2189.85 -5761.65 1640.31 0.4925
-2189.75 -5761.40 1641.49 0.4956
-2189.77 -5761.47 1642.75 0.4962
-2189.80 -5761.55 1644.03 0.4966
-2189.77 -5761.46 1645.25 0.4939
-2189.78 -5761.50 1646.51 0.4913
-2189.70 -5761.28 1647.70 0.4905
-2189.78 -5761.51 1649.01 0.4874
-2189.80 -5761.57 1650.28 0.4936
-2189.75 -5761.42 1651.49 0.4976
-2192.13 -5763.54 1298.31 0.5035
-2192.10 -5763.45 1299.50 0.5031
-2192.13 -5763.54 1300.74 0.5055
-2192.15 -5763.58 1301.97 0.5067
-2192.15 -5763.60 1303.19 0.5027
-2192.12 -5763.52 1304.38 0.4964
-2192.11 -5763.49 1305.60 0.4986
-2192.14 -5763.58 1306.83 0.5036
-2192.11 -5763.49 1308.03 0.5043
-2192.13 -5763.56 1309.26 0.5038
-2192.12 -5763.52 1310.47 0.4998
-2192.09 -5763.44 1311.67 0.5017
-2192.14 -5763.58 1312.92 0.5022
-2192.19 -5763.71 1314.17 0.5007
-2192.18 -5763.70 1315.39 0.5001
-2192.07 -5763.42 1316.54 0.5002
-2192.13 -5763.56 1317.79 0.5011
-2192.19 -5763.74 1319.05 0.5017
-2192.12 -5763.55 1320.23 0.5018
-2192.12 -5763.55 1321.45 0.4993
-2192.20 -5763.77 1322.72 0.5034
-2192.15 -5763.63 1323.90 0.4999
-2192.15 -5763.63 1325.12 0.4967
-2192.05 -5763.39 1326.29 0.4966
-2192.00 -5763.26 1327.47 0.4970
-2192.05 -5763.40 1328.73 0.4971
-2191.92 -5763.04 1329.86 0.5003
-2191.89 -5762.99 1331.07 0.5018
-2191.83 -5762.83 1332.25 0.5044
-2191.85 -5762.86 1333.48 0.5009
-2191.82 -5762.79 1334.68 0.4991
-2191.80 -5762.74 1335.89 0.5013
-2191.91 -5763.04 1337.18 0.5048
-2191.84 -5762.86 1338.36 0.5040
-2191.83 -5762.85 1339.57 0.5039
-2191.94 -5763.12 1340.86 0.5047
-2191.89 -5763.01 1342.05 0.5107
-2191.88 -5762.98 1343.26 0.5102
-2191.91 -5763.07 1344.50 0.5105
-2191.84 -5762.87 1345.68 0.5072
-2191.86 -5762.94 1346.91 0.5037
-2191.86 -5762.93 1348.13 0.5060
-2191.87 -5762.95 1349.35 0.5074
-2191.92 -5763.11 1350.61 0.5084
-2191.90 -5763.04 1351.82 0.5085
-2191.87 -5762.96 1353.02 0.5061
-2191.97 -5763.25 1354.31 0.5062
-2191.85 -5762.91 1355.45 0.5057
-2191.93 -5763.15 1356.73 0.5022
-2192.00 -5763.31 1357.99 0.4893
-2192.09 -5763.57 1359.28 0.4538
-2192.09 -5763.57 1360.50 0.3984
-2192.12 -5763.65 1361.74 0.3268
-2191.95 -5763.20 1362.85 0.2684
-2192.04 -5763.45 1364.14 0.2290
-2191.61 -5762.32 1365.09 0.2191
-2192.03 -5763.42 1366.57 0.2151
-2191.81 -5762.84 1367.66 0.2152
-2191.89 -5763.05 1368.93 0.2153
-2191.61 -5762.34 1369.98 0.2123
-2192.10 -5763.61 1371.51 0.2104
-2191.96 -5763.25 1372.65 0.2145
-2191.82 -5762.88 1373.78 0.2114
-2192.07 -5763.54 1375.16 0.2103
-2191.93 -5763.18 1376.30 0.2080
-2191.89 -5763.07 1377.49 0.2125
-2191.91 -5763.13 1378.73 0.2095
-2191.53 -5762.13 1379.72 0.2109
-2191.98 -5763.33 1381.23 0.2097
-2191.99 -5763.35 1382.45 0.2119
-2191.94 -5763.23 1383.65 0.2132
-2191.97 -5763.29 1384.89 0.2115
-2191.85 -5762.99 1386.04 0.2089
-2192.02 -5763.44 1387.37 0.2088
-2191.96 -5763.29 1388.56 0.2101
-2192.02 -5763.44 1389.82 0.2065
-2192.13 -5763.74 1391.12 0.2115
-2191.72 -5762.68 1392.08 0.2125
-2191.86 -5763.02 1393.39 0.2117
-2191.89 -5763.11 1394.64 0.2091
-2191.73 -5762.70 1395.76 0.2076
-2192.00 -5763.42 1397.16 0.2078
-2191.85 -5763.03 1398.29 0.2112
-2191.88 -5763.11 1399.54 0.2066
-2191.90 -5763.15 1400.77 0.2090
-2191.86 -5763.06 1401.98 0.2080
-2191.66 -5762.53 1403.07 0.2076
-2191.96 -5763.31 1404.49 0.2091
-2191.87 -5763.09 1405.66 0.2093
-2191.90 -5763.18 1406.91 0.2095
-2191.94 -5763.27 1408.15 0.2096
-2191.96 -5763.34 1409.40 0.2117
-2191.97 -5763.35 1410.63 0.2126
-2192.06 -5763.60 1411.91 0.2120
-2191.96 -5763.33 1413.07 0.2107
-2192.00 -5763.44 1414.32 0.2093
-2191.80 -5762.93 1415.42 0.2115
-2191.98 -5763.40 1416.77 0.2123
-2192.23 -5764.06 1418.16 0.2124
-2191.89 -5763.18 1419.17 0.2130
-2191.84 -5763.05 1420.37 0.2124
-2191.87 -5763.12 1421.61 0.2143
-2192.07 -5763.65 1422.98 0.2165
-2192.15 -5763.86 1424.26 0.2274
-2192.18 -5763.94 1425.51 0.2706
-2192.17 -5763.91 1426.73 0.3379
-2192.11 -5763.76 1427.92 0.4103
-2191.99 -5763.46 1429.08 0.4688
-2192.00 -5763.48 1430.31 0.4954
-2191.93 -5763.30 1431.50 0.5004
-2191.92 -5763.29 1432.73 0.5021
-2192.00 -5763.48 1434.00 0.5027
-2192.02 -5763.55 1435.25 0.5029
-2192.00 -5763.50 1436.46 0.5032
-2192.06 -5763.67 1437.74 0.5038
-2191.95 -5763.37 1438.89 0.5032
-2191.97 -5763.42 1440.13 0.5023
-2191.97 -5763.44 1441.37 0.5033
-2191.92 -5763.29 1442.56 0.5024
-2191.91 -5763.27 1443.78 0.5047
-2191.94 -5763.36 1445.04 0.5036
-2191.91 -5763.29 1446.25 0.5066
-2191.92 -5763.33 1447.48 0.5073
-2191.97 -5763.46 1448.75 0.5090
-2191.93 -5763.34 1449.95 0.5092
-2191.97 -5763.46 1451.21 0.5075
-2191.95 -5763.41 1452.42 0.5080
-2191.96 -5763.43 1453.66 0.5073
-2191.91 -5763.31 1454.86 0.5076
-2191.98 -5763.48 1456.13 0.5076
-2191.93 -5763.37 1457.33 0.5052
-2191.83 -5763.11 1458.50 0.5033
-2191.94 -5763.39 1459.80 0.5011
-2191.90 -5763.29 1461.00 0.5013
-2191.93 -5763.36 1462.25 0.5059
-2191.90 -5763.29 1463.46 0.5089
-2192.00 -5763.57 1464.76 0.5079
-2191.98 -5763.52 1465.98 0.5037
-2191.89 -5763.28 1467.14 0.5041
-2191.89 -5763.27 1468.37 0.5060
-2191.89 -5763.28 1469.61 0.5064
-2191.96 -5763.47 1470.88 0.5060
-2191.96 -5763.47 1472.11 0.5045
-2191.92 -5763.36 1473.32 0.5040
-2191.91 -5763.36 1474.55 0.5007
-2191.96 -5763.48 1475.81 0.4994
-2191.89 -5763.30 1476.99 0.5024
-2191.86 -5763.23 1478.21 0.5007
-2191.87 -5763.26 1479.45 0.5037
-2191.91 -5763.36 1480.71 0.5046
-2191.85 -5763.20 1481.90 0.5063
-2191.93 -5763.42 1483.19 0.5032
-2191.89 -5763.33 1484.40 0.5020
-2191.87 -5763.27 1485.62 0.5023
-2191.90 -5763.34 1486.87 0.5038
-2191.88 -5763.30 1488.09 0.5054
-2191.86 -5763.24 1489.31 0.5029
-2191.94 -5763.45 1490.60 0.5035
-2191.90 -5763.37 1491.81 0.5042
-2191.84 -5763.21 1493.00 0.5061
-2191.87 -5763.29 1494.26 0.5093
-2191.85 -5763.24 1495.48 0.5086
-2191.79 -5763.09 1496.68 0.5068
-2191.85 -5763.25 1497.95 0.5063
-2191.83 -5763.21 1499.17 0.5069
-2191.88 -5763.33 1500.44 0.5060
-2191.82 -5763.18 1501.64 0.5062
-2191.74 -5762.97 1502.81 0.5041
-2191.74 -5762.97 1504.05 0.5030
-2191.76 -5763.02 1505.29 0.5078
-2191.76 -5763.03 1506.53 0.5089
-2191.75 -5763.01 1507.76 0.5095
-2191.76 -5763.02 1509.00 0.5098
-2191.77 -5763.07 1510.25 0.5055
-2191.76 -5763.03 1511.47 0.5035
-2191.86 -5763.30 1512.77 0.5048
-2191.79 -5763.12 1513.96 0.5053
-2191.76 -5763.05 1515.18 0.5106
-2191.82 -5763.20 1516.45 0.5104
-2191.74 -5762.99 1517.63 0.5078
-2191.76 -5763.07 1518.89 0.5067
-2191.73 -5762.98 1520.10 0.5086
-2191.75 -5763.04 1521.35 0.5003
-2191.79 -5763.13 1522.61 0.4763
-2191.85 -5763.30 1523.89 0.4350
-2191.91 -5763.47 1525.18 0.3737
-2191.97 -5763.62 1526.45 0.3079
-2191.87 -5763.37 1527.62 0.2499
