261   
288
-2199.78 -5766.87 1424.18 0.4985
-2199.76 -5766.83 1425.40 0.5022
-2199.76 -5766.84 1426.63 0.5052
-2199.75 -5766.80 1427.85 0.5035
-2199.73 -5766.77 1429.07 0.5051
-2199.78 -5766.90 1430.33 0.5066
-2199.84 -5767.04 1431.60 0.5076
-2199.79 -5766.94 1432.80 0.5021
-2199.73 -5766.77 1433.99 0.5029
-2199.77 -5766.87 1435.24 0.5054
-2199.76 -5766.86 1436.46 0.5067
-2199.81 -5766.99 1437.73 0.5061
-2199.69 -5766.68 1438.88 0.5071
-2199.77 -5766.89 1440.16 0.5050
-2199.67 -5766.63 1441.32 0.5040
-2199.74 -5766.81 1442.59 0.5009
-2199.78 -5766.94 1443.85 0.5027
-2199.77 -5766.90 1445.07 0.5018
-2199.74 -5766.84 1446.29 0.5005
-2199.77 -5766.92 1447.54 0.5002
-2199.71 -5766.76 1448.73 0.5018
-2199.67 -5766.65 1449.93 0.5039
-2199.72 -5766.80 1451.20 0.5038
-2199.76 -5766.89 1452.46 0.5030
-2199.70 -5766.74 1453.65 0.5045
-2199.61 -5766.49 1454.82 0.5063
-2199.68 -5766.69 1456.10 0.5027
-2199.77 -5766.92 1457.39 0.5026
-2199.79 -5766.99 1458.64 0.5053
-2199.73 -5766.84 1459.83 0.5067
-2199.73 -5766.84 1461.07 0.5081
-2199.79 -5766.98 1462.33 0.5065
-2199.75 -5766.90 1463.54 0.5047
-2199.66 -5766.67 1464.72 0.5039
-2199.71 -5766.78 1465.98 0.5054
-2199.70 -5766.77 1467.21 0.5054
-2199.74 -5766.88 1468.47 0.5039
-2199.75 -5766.90 1469.70 0.5011
-2199.70 -5766.78 1470.91 0.5020
-2199.65 -5766.64 1472.10 0.5027
-2199.69 -5766.76 1473.37 0.5042
-2199.66 -5766.67 1474.57 0.5048
-2199.68 -5766.72 1475.82 0.5045
-2199.67 -5766.71 1477.05 0.5054
-2199.71 -5766.83 1478.31 0.5020
-2199.67 -5766.73 1479.52 0.5011
-2199.69 -5766.76 1480.76 0.5017
-2199.70 -5766.81 1482.00 0.5018
-2199.66 -5766.70 1483.21 0.5021
-2199.64 -5766.65 1484.43 0.5068
-2199.63 -5766.64 1485.66 0.5058
-2199.60 -5766.56 1486.87 0.5058
-2199.65 -5766.69 1488.14 0.5052
-2199.65 -5766.70 1489.37 0.5062
-2199.63 -5766.65 1490.60 0.5041
-2199.62 -5766.61 1491.82 0.5080
-2199.67 -5766.76 1493.09 0.5068
-2199.62 -5766.63 1494.29 0.5026
-2199.58 -5766.54 1495.51 0.5026
-2199.60 -5766.60 1496.75 0.5041
-2199.63 -5766.67 1498.01 0.5050
-2199.59 -5766.56 1499.22 0.5070
-2199.62 -5766.65 1500.48 0.5050
-2199.55 -5766.46 1501.66 0.5095
-2199.57 -5766.51 1502.91 0.5085
-2199.66 -5766.76 1504.21 0.5062
-2199.59 -5766.58 1505.40 0.5047
-2199.55 -5766.49 1506.61 0.5032
-2199.57 -5766.53 1507.86 0.5075
-2199.61 -5766.64 1509.12 0.5106
-2199.63 -5766.70 1510.38 0.5080
-2199.53 -5766.43 1511.54 0.5101
-2199.52 -5766.42 1512.78 0.5096
-2199.55 -5766.50 1514.03 0.5110
-2199.55 -5766.51 1515.27 0.5048
-2199.54 -5766.48 1516.50 0.5003
-2199.56 -5766.53 1517.75 0.5014
-2199.51 -5766.41 1518.96 0.5040
-2199.54 -5766.48 1520.22 0.5038
-2199.48 -5766.33 1521.41 0.5050
-2199.44 -5766.25 1522.63 0.5027
-2199.49 -5766.37 1523.90 0.5031
-2199.46 -5766.29 1525.12 0.4987
-2199.53 -5766.50 1526.41 0.5012
-2199.46 -5766.30 1527.60 0.5018
-2199.50 -5766.41 1528.87 0.5048
-2199.45 -5766.27 1530.07 0.5026
-2199.39 -5766.13 1531.27 0.4979
-2199.37 -5766.07 1532.49 0.4937
-2199.33 -5765.99 1533.71 0.4643
-2199.49 -5766.41 1535.06 0.4196
-2199.53 -5766.51 1536.32 0.3546
-2199.31 -5765.94 1537.41 0.2828
-2199.51 -5766.46 1538.79 0.2344
-2199.35 -5766.06 1539.92 0.2177
-2199.26 -5765.82 1541.09 0.2118
-2199.46 -5766.34 1542.47 0.2130
-2199.78 -5767.19 1543.94 0.2209
-2199.80 -5767.24 1545.19 0.2534
-2199.85 -5767.39 1546.47 0.3159
-2199.66 -5766.88 1547.57 0.3826
-2199.47 -5766.40 1548.69 0.4440
-2199.45 -5766.34 1549.91 0.4848
-2199.31 -5765.96 1551.05 0.5034
-2199.28 -5765.91 1552.27 0.5030
-2199.35 -5766.09 1553.56 0.5036
-2199.31 -5765.99 1554.78 0.5064
-2199.29 -5765.95 1556.01 0.5068
-2199.27 -5765.88 1557.23 0.5079
-2199.23 -5765.78 1558.44 0.5057
-2199.22 -5765.75 1559.67 0.5014
-2199.27 -5765.86 1560.94 0.5024
-2199.20 -5765.68 1563.37 0.5027
-2199.25 -5765.81 1564.65 0.5029
-2199.27 -5765.86 1565.90 0.5022
-2199.22 -5765.72 1567.10 0.5044
-2199.28 -5765.90 1568.39 0.5046
-2199.29 -5765.92 1569.64 0.5041
-2199.22 -5765.75 1570.83 0.5031
-2199.36 -5766.11 1572.17 0.5010
-2199.43 -5766.30 1573.46 0.4985
-2199.49 -5766.46 1574.75 0.5006
-2199.50 -5766.49 1576.00 0.4971
-2199.52 -5766.55 1577.26 0.4968
-2199.50 -5766.49 1578.48 0.4959
-2199.48 -5766.45 1579.71 0.4962
-2199.48 -5766.47 1580.96 0.4955
-2199.52 -5766.57 1582.23 0.4961
-2199.51 -5766.56 1583.47 0.4973
-2199.55 -5766.66 1584.74 0.4992
-2199.47 -5766.46 1585.93 0.4983
-2199.41 -5766.32 1587.14 0.4961
-2199.34 -5766.14 1588.33 0.4944
-2199.42 -5766.36 1589.63 0.4915
-2199.42 -5766.36 1590.88 0.4948
-2199.41 -5766.33 1592.11 0.5005
-2199.36 -5766.20 1593.32 0.5010
-2199.50 -5766.58 1594.67 0.4954
-2199.32 -5766.12 1595.79 0.4913
-2199.37 -5766.24 1597.07 0.4903
-2199.36 -5766.22 1598.31 0.4944
-2199.34 -5766.17 1599.54 0.4958
-2199.33 -5766.14 1600.77 0.4943
-2199.28 -5766.01 1601.98 0.4975
-2199.30 -5766.07 1603.24 0.4989
-2199.25 -5765.95 1604.45 0.4993
-2199.32 -5766.12 1605.74 0.4977
-2199.35 -5766.20 1607.01 0.4973
-2199.22 -5765.87 1608.15 0.4942
-2199.26 -5765.98 1609.43 0.4952
-2199.23 -5765.90 1610.65 0.4974
-2199.27 -5766.02 1611.93 0.5011
-2199.25 -5765.97 1613.16 0.5023
-2199.21 -5765.87 1614.38 0.4958
-2199.14 -5765.69 1615.57 0.4913
-2199.21 -5765.87 1616.87 0.4930
-2199.18 -5765.78 1618.09 0.4988
-2199.25 -5765.97 1619.39 0.4978
-2199.25 -5765.97 1620.64 0.4953
-2199.22 -5765.89 1621.86 0.4943
-2199.21 -5765.88 1623.10 0.4967
-2199.26 -5766.02 1624.39 0.4932
-2199.20 -5765.85 1625.59 0.4931
-2199.18 -5765.80 1626.82 0.4933
-2199.12 -5765.66 1628.03 0.4986
-2199.15 -5765.75 1629.30 0.5002
-2199.15 -5765.75 1630.55 0.4963
-2199.21 -5765.89 1631.84 0.4970
-2199.14 -5765.72 1633.04 0.4935
-2199.06 -5765.51 1634.23 0.4896
-2199.07 -5765.55 1635.49 0.4919
-2199.08 -5765.58 1636.74 0.4916
-2199.12 -5765.68 1638.02 0.4899
-2199.11 -5765.65 1639.26 0.4920
-2199.10 -5765.64 1640.51 0.4930
-2199.09 -5765.60 1641.74 0.4940
-2199.03 -5765.46 1642.95 0.4953
-2199.18 -5765.84 1644.31 0.4946
-2199.06 -5765.53 1645.47 0.4961
-2199.09 -5765.63 1646.74 0.4948
-2199.00 -5765.38 1647.92 0.4969
-2198.89 -5765.09 1649.09 0.4932
-2198.98 -5765.35 1650.41 0.4946
-2199.01 -5765.42 1651.68 0.4968
-2199.12 -5765.71 1653.01 0.4942
0 0 0 0.0000
-2201.60 -5767.69 1299.49 0.4969
-2201.57 -5767.62 1300.69 0.4983
-2201.54 -5767.53 1301.89 0.5008
-2201.55 -5767.57 1303.11 0.4998
-2201.55 -5767.57 1304.33 0.4977
-2201.56 -5767.60 1305.56 0.4990
-2201.58 -5767.66 1306.79 0.4987
-2201.60 -5767.71 1308.02 0.4991
-2201.56 -5767.62 1309.22 0.4988
-2201.68 -5767.93 1310.51 0.5001
-2201.60 -5767.71 1311.68 0.5059
-2201.67 -5767.92 1312.95 0.5046
-2201.59 -5767.69 1314.12 0.5013
-2201.61 -5767.76 1315.36 0.4982
-2201.50 -5767.48 1316.51 0.4978
-2201.59 -5767.71 1317.78 0.4997
-2201.60 -5767.75 1319.01 0.5025
-2201.65 -5767.88 1320.26 0.5045
-2201.65 -5767.88 1321.49 0.5013
-2201.68 -5767.94 1322.72 0.4976
-2201.62 -5767.80 1323.91 0.4963
-2201.59 -5767.72 1325.12 0.4917
-2201.55 -5767.62 1326.32 0.4924
-2201.67 -5767.94 1327.61 0.4955
-2201.68 -5767.97 1328.84 0.4974
-2201.69 -5767.99 1330.07 0.4980
-2201.75 -5768.16 1331.33 0.4979
-2201.74 -5768.13 1332.55 0.4980
-2201.65 -5767.90 1333.72 0.5005
-2201.63 -5767.85 1334.93 0.5017
-2201.65 -5767.91 1336.17 0.5013
-2201.76 -5768.21 1337.46 0.5011
-2201.69 -5768.01 1338.63 0.5009
-2201.58 -5767.72 1339.79 0.4969
-2201.51 -5767.55 1340.97 0.5018
-2201.47 -5767.46 1342.17 0.5017
-2201.43 -5767.34 1343.36 0.5002
-2201.38 -5767.22 1344.55 0.5019
-2201.37 -5767.20 1345.77 0.5039
-2201.37 -5767.20 1346.99 0.5047
-2201.33 -5767.10 1348.19 0.5060
-2201.25 -5766.89 1349.37 0.5054
-2201.39 -5767.26 1350.67 0.5056
-2201.29 -5767.00 1351.83 0.5034
-2201.35 -5767.15 1353.09 0.5041
-2201.41 -5767.32 1354.36 0.5061
-2201.41 -5767.32 1355.58 0.5078
-2201.37 -5767.22 1356.78 0.5065
-2201.37 -5767.23 1358.00 0.5035
-2201.40 -5767.30 1359.24 0.5084
-2201.45 -5767.43 1360.50 0.5079
-2201.39 -5767.28 1361.69 0.5058
-2201.37 -5767.24 1362.90 0.5014
-2201.37 -5767.24 1364.12 0.5002
-2201.40 -5767.33 1365.37 0.5008
-2201.38 -5767.27 1366.57 0.4985
-2201.40 -5767.33 1367.81 0.4986
-2201.41 -5767.35 1369.04 0.5025
-2201.35 -5767.20 1370.23 0.4992
-2201.50 -5767.59 1371.55 0.4834
-2201.45 -5767.45 1372.74 0.4456
-2201.48 -5767.54 1373.98 0.3939
-2201.57 -5767.77 1375.26 0.3285
-2201.67 -5768.06 1376.55 0.2648
-2201.52 -5767.66 1377.68 0.2289
-2201.37 -5767.27 1378.82 0.2158
-2201.43 -5767.42 1380.08 0.2139
-2201.31 -5767.11 1381.23 0.2108
-2201.47 -5767.53 1382.55 0.2147
-2201.22 -5766.87 1383.62 0.2191
-2201.54 -5767.72 1385.05 0.2140
-2201.35 -5767.22 1386.16 0.2135
-2201.43 -5767.45 1387.44 0.2139
-2201.28 -5767.06 1388.57 0.2088
-2201.53 -5767.72 1389.95 0.2095
-2201.13 -5766.68 1390.93 0.2089
-2201.27 -5767.05 1392.24 0.2092
-2201.10 -5766.59 1393.36 0.2123
-2201.65 -5768.03 1394.93 0.2119
-2201.38 -5767.32 1395.98 0.2089
-2201.40 -5767.39 1397.23 0.2108
-2201.23 -5766.95 1398.34 0.2108
-2201.14 -5766.71 1399.51 0.2081
-2201.53 -5767.73 1400.99 0.2105
-2201.31 -5767.16 1402.07 0.2079
-2201.34 -5767.25 1403.32 0.2082
-2201.19 -5766.87 1404.45 0.2079
-2201.46 -5767.56 1405.85 0.2102
-2201.20 -5766.88 1406.91 0.2116
-2201.53 -5767.76 1408.35 0.2119
-2201.42 -5767.46 1409.51 0.2084
-2201.46 -5767.59 1410.77 0.2121
-2201.37 -5767.35 1411.94 0.2119
-2201.83 -5768.54 1413.45 0.2148
-2201.48 -5767.63 1414.46 0.2129
-2201.55 -5767.82 1415.73 0.2180
-2201.89 -5768.71 1417.18 0.2451
-2201.76 -5768.37 1418.32 0.3098
-2201.78 -5768.42 1419.57 0.3807
-2201.49 -5767.68 1420.61 0.4406
-2201.55 -5767.83 1421.88 0.4856
-2201.44 -5767.54 1423.03 0.5024
-2201.48 -5767.65 1424.29 0.5047
-2201.35 -5767.33 1425.44 0.5016
-2201.41 -5767.48 1426.71 0.5011
-2201.38 -5767.40 1427.92 0.5033
-2201.49 -5767.71 1429.22 0.5016
-2201.43 -5767.55 1430.41 0.5062
-2201.44 -5767.58 1431.65 0.5074
-2201.48 -5767.67 1432.90 0.5031
-2201.39 -5767.46 1434.08 0.5059
-2201.47 -5767.66 1435.36 0.5044
-2201.49 -5767.71 1436.60 0.5029
-2201.42 -5767.53 1437.79 0.5052
-2201.36 -5767.38 1438.98 0.5030
-2201.37 -5767.40 1440.22 0.5010
-2201.42 -5767.54 1441.48 0.5029
-2201.42 -5767.53 1442.71 0.4990
-2201.39 -5767.47 1443.93 0.5002
-2201.39 -5767.46 1445.15 0.4986
-2201.40 -5767.49 1446.39 0.5008
-2201.37 -5767.43 1447.61 0.5013
-2201.35 -5767.37 1448.82 0.5016
-2201.43 -5767.58 1450.11 0.5044
-2201.39 -5767.48 1451.31 0.5026
-2201.40 -5767.52 1452.56 0.5038
-2201.40 -5767.51 1453.79 0.5063
-2201.37 -5767.44 1455.00 0.5071
-2201.45 -5767.65 1456.28 0.5054
-2201.45 -5767.65 1457.52 0.5037
-2201.45 -5767.65 1458.75 0.5075
-2201.35 -5767.40 1459.92 0.5078
-2201.40 -5767.52 1461.18 0.5097
-2201.43 -5767.61 1462.43 0.5093
-2201.34 -5767.39 1463.61 0.5073
-2201.36 -5767.42 1464.85 0.5036
-2201.32 -5767.34 1466.06 0.5052
-2201.38 -5767.49 1467.33 0.5055
-2201.33 -5767.37 1468.53 0.5056
-2201.36 -5767.45 1469.79 0.5024
-2201.36 -5767.46 1471.02 0.5018
-2201.31 -5767.33 1472.22 0.5050
-2201.35 -5767.42 1473.48 0.5032
-2201.34 -5767.41 1474.71 0.5031
-2201.28 -5767.26 1475.90 0.5047
-2201.33 -5767.38 1477.17 0.5060
-2201.32 -5767.35 1478.40 0.5056
-2201.37 -5767.50 1479.67 0.5057
-2201.38 -5767.52 1480.91 0.5074
-2201.30 -5767.33 1482.10 0.5049
-2201.38 -5767.54 1483.39 0.5060
-2201.33 -5767.40 1484.59 0.5076
-2201.32 -5767.38 1485.82 0.5062
-2201.37 -5767.52 1487.09 0.5038
-2201.20 -5767.08 1488.22 0.5031
-2201.26 -5767.23 1489.49 0.5033
-2201.25 -5767.22 1490.72 0.5020
-2201.17 -5766.99 1491.90 0.5060
-2201.25 -5767.20 1493.19 0.5086
-2201.27 -5767.28 1494.44 0.5050
-2201.22 -5767.13 1495.64 0.5032
-2201.28 -5767.30 1496.92 0.5025
-2201.28 -5767.31 1498.16 0.5048
-2201.28 -5767.30 1499.39 0.5045
-2201.25 -5767.24 1500.61 0.5057
-2201.22 -5767.16 1501.83 0.5066
-2201.22 -5767.15 1503.06 0.5057
-2201.30 -5767.36 1504.35 0.5065
-2201.28 -5767.33 1505.58 0.5068
-2201.20 -5767.12 1506.76 0.5034
-2201.26 -5767.28 1508.04 0.5079
-2201.27 -5767.30 1509.28 0.5103
-2201.21 -5767.14 1510.48 0.5092
-2201.10 -5766.85 1511.64 0.5113
-2201.31 -5767.42 1513.03 0.5091
-2201.22 -5767.18 1514.20 0.5084
-2201.25 -5767.27 1515.46 0.5064
-2201.16 -5767.04 1517.87 0.5024
-2201.08 -5766.82 1519.05 0.5054
-2201.21 -5767.18 1520.38 0.5052
-2201.15 -5767.01 1521.57 0.5028
-2201.25 -5767.29 1522.88 0.5022
-2201.17 -5767.08 1524.07 0.5021
-2201.12 -5766.94 1525.26 0.5011
-2201.18 -5767.12 1526.55 0.5013
-2201.15 -5767.03 1527.76 0.5018
-2201.11 -5766.93 1528.97 0.5053
-2201.08 -5766.85 1530.19 0.5034
-2201.13 -5766.99 1531.46 0.5020
-2201.02 -5766.70 1532.63 0.4986
-2201.09 -5766.88 1533.91 0.4967
-2201.05 -5766.80 1535.13 0.4875
-2201.08 -5766.87 1536.39 0.4576
-2201.15 -5767.06 1537.68 0.3998
-2201.09 -5766.90 1538.87 0.3311
-2201.21 -5767.21 1540.20 0.2668
-2201.14 -5767.05 1541.39 0.2307
-2201.29 -5767.43 1542.73 0.2306
-2201.31 -5767.48 1543.99 0.2685
-2201.62 -5768.32 1545.45 0.3369
-2201.40 -5767.75 1546.54 0.4057
-2201.21 -5767.23 1547.64 0.4634
-2201.11 -5766.98 1548.81 0.4937
-2201.03 -5766.78 1550.00 0.5021
-2200.99 -5766.67 1551.21 0.5052
-2200.97 -5766.63 1552.44 0.5025
-2200.99 -5766.69 1553.69 0.5026
-2201.00 -5766.71 1554.94 0.5057
-2200.89 -5766.43 1556.11 0.5054
-2200.99 -5766.68 1557.42 0.5059
-2200.97 -5766.63 1558.64 0.5025
-2200.99 -5766.71 1559.90 0.4999
-2200.93 -5766.54 1561.10 0.5004
-2200.92 -5766.52 1562.33 0.5006
-2200.88 -5766.43 1563.55 0.5018
-2200.90 -5766.47 1564.80 0.5049
-2200.91 -5766.50 1566.05 0.5054
-2200.87 -5766.41 1567.26 0.5052
-2200.93 -5766.57 1568.55 0.5036
-2200.93 -5766.57 1569.79 0.5006
-2201.01 -5766.78 1571.09 0.5011
-2201.05 -5766.89 1572.36 0.4970
-2201.18 -5767.24 1573.70 0.4979
-2201.20 -5767.30 1574.96 0.4977
-2201.15 -5767.16 1576.16 0.5009
-2201.16 -5767.19 1577.41 0.4996
-2201.12 -5767.10 1578.63 0.4945
-2201.14 -5767.14 1579.89 0.4955
-2201.17 -5767.24 1581.16 0.4940
-2201.16 -5767.21 1582.39 0.4953
-2201.07 -5766.97 1583.57 0.4946
-2201.13 -5767.13 1584.86 0.4929
-2201.08 -5767.02 1586.07 0.4951
-2201.10 -5767.06 1587.32 0.4972
-2201.00 -5766.82 1588.50 0.4972
-2201.09 -5767.03 1589.80 0.4947
-2201.02 -5766.87 1591.00 0.4955
-2201.12 -5767.14 1592.32 0.5018
-2201.11 -5767.11 1593.56 0.5007
-2201.08 -5767.03 1594.78 0.4967
-2201.14 -5767.18 1596.07 0.4943
-2201.01 -5766.86 1597.22 0.4933
-2201.06 -5766.99 1598.50 0.4974
-2201.01 -5766.86 1599.71 0.4961
-2200.93 -5766.65 1600.90 0.4967
-2200.93 -5766.66 1602.14 0.4973
-2200.97 -5766.76 1603.42 0.4999
-2200.95 -5766.72 1604.65 0.4981
-2200.97 -5766.78 1605.91 0.4946
-2200.92 -5766.64 1607.12 0.4951
-2200.85 -5766.46 1608.32 0.4980
-2200.91 -5766.63 1609.61 0.4950
-2200.97 -5766.79 1610.90 0.4992
-2200.93 -5766.69 1612.12 0.5034
-2200.96 -5766.77 1613.39 0.5044
-2200.88 -5766.57 1614.58 0.4981
-2200.93 -5766.69 1615.86 0.4947
-2200.91 -5766.64 1617.09 0.4921
-2200.83 -5766.44 1618.28 0.4947
-2200.85 -5766.50 1619.55 0.4971
-2200.88 -5766.57 1620.82 0.4906
-2200.79 -5766.32 1621.99 0.4950
-2200.90 -5766.59 1623.32 0.4984
-2200.88 -5766.54 1624.55 0.4964
-2200.90 -5766.60 1625.82 0.4965
-2200.95 -5766.72 1627.10 0.4990
-2200.76 -5766.23 1628.21 0.4974
-2200.87 -5766.51 1629.54 0.4957
-2200.75 -5766.20 1630.70 0.4937
-2200.82 -5766.39 1632.00 0.4960
-2200.73 -5766.16 1633.18 0.4955
-2200.77 -5766.29 1634.47 0.4921
-2200.75 -5766.24 1635.71 0.4940
-2200.73 -5766.19 1636.94 0.4913
-2200.78 -5766.31 1638.23 0.4891
-2200.78 -5766.31 1639.48 0.4894
-2200.75 -5766.23 1640.70 0.4899
-2200.73 -5766.19 1641.94 0.4923
-2200.71 -5766.13 1643.18 0.4942
-2200.74 -5766.21 1644.45 0.4931
-2200.77 -5766.30 1645.72 0.4917
-2200.74 -5766.22 1646.95 0.4939
-2200.66 -5766.03 1648.14 0.4913
-2200.76 -5766.28 1649.47 0.4935
-2200.71 -5766.15 1650.68 0.4925
-2200.78 -5766.33 1651.98 0.4950
-2200.61 -5765.89 1653.10 0.4940
0 0 0 0.0000
-2203.15 -5768.21 1299.53 0.4951
-2203.12 -5768.14 1300.73 0.4919
-2203.13 -5768.17 1301.96 0.4974
-2203.22 -5768.41 1303.23 0.4979
-2203.10 -5768.09 1304.37 0.4965
-2203.16 -5768.25 1305.63 0.4951
-2203.24 -5768.47 1306.90 0.4965
-2203.29 -5768.59 1308.14 0.4971
-2203.22 -5768.41 1309.32 0.4971
-2203.22 -5768.43 1310.55 0.4977
-2203.20 -5768.38 1311.76 0.4994
-2203.12 -5768.17 1312.93 0.5016
-2203.25 -5768.51 1314.23 0.4991
-2203.21 -5768.41 1315.42 0.4969
-2203.15 -5768.26 1316.61 0.4988
-2203.21 -5768.40 1317.86 0.4998
-2203.18 -5768.34 1319.07 0.4998
-2203.25 -5768.53 1320.33 0.5014
-2203.20 -5768.39 1321.52 0.5019
-2203.19 -5768.36 1322.73 0.5027
-2203.27 -5768.57 1324.00 0.4969
-2203.26 -5768.56 1325.22 0.4928
-2203.15 -5768.27 1326.37 0.4924
-2203.26 -5768.57 1327.66 0.4930
-2203.37 -5768.85 1328.95 0.4958
-2203.33 -5768.74 1330.14 0.5008
-2203.22 -5768.45 1331.30 0.4961
-2203.25 -5768.52 1332.53 0.4962
-2203.25 -5768.53 1333.76 0.4981
-2203.33 -5768.74 1335.03 0.5011
-2203.21 -5768.43 1336.18 0.5022
-2203.35 -5768.78 1337.48 0.4989
-2203.32 -5768.70 1338.69 0.4993
-2203.25 -5768.53 1339.87 0.4966
-2203.24 -5768.52 1341.09 0.5002
-2203.19 -5768.42 1342.29 0.4988
-2203.12 -5768.23 1343.47 0.4980
-2203.09 -5768.16 1344.67 0.4981
-2202.97 -5767.85 1345.82 0.5006
-2202.98 -5767.87 1347.05 0.5045
-2202.93 -5767.74 1348.24 0.5054
-2203.00 -5767.93 1349.51 0.5076
-2202.98 -5767.88 1350.72 0.5049
-2202.96 -5767.84 1351.93 0.5052
-2203.03 -5768.03 1353.20 0.5071
-2202.99 -5767.91 1354.39 0.5068
-2203.02 -5768.00 1355.64 0.5036
-2203.00 -5767.94 1356.85 0.5055
-2203.01 -5767.99 1358.08 0.5039
-2202.92 -5767.74 1359.24 0.5052
-2202.96 -5767.87 1360.50 0.5051
-2202.99 -5767.95 1361.74 0.5041
-2203.02 -5768.02 1362.98 0.5027
-2203.03 -5768.06 1364.21 0.5028
-2202.99 -5767.95 1365.41 0.5013
-2203.00 -5767.97 1366.64 0.4971
-2203.02 -5768.04 1367.88 0.4975
-2202.93 -5767.79 1369.05 0.4987
-2203.01 -5768.00 1370.32 0.5019
-2203.02 -5768.03 1371.55 0.5036
-2203.03 -5768.06 1372.78 0.4988
-2203.07 -5768.18 1374.03 0.4828
-2203.08 -5768.20 1375.27 0.4423
-2203.13 -5768.35 1376.53 0.3861
-2203.33 -5768.85 1377.88 0.3177
-2203.11 -5768.30 1378.97 0.2591
-2202.81 -5767.50 1380.01 0.2266
-2202.88 -5767.69 1381.28 0.2148
-2202.97 -5767.94 1382.57 0.2141
-2202.91 -5767.76 1383.75 0.2153
-2203.04 -5768.11 1385.06 0.2136
-2202.78 -5767.44 1386.13 0.2124
-2203.09 -5768.25 1387.55 0.2127
-2202.93 -5767.83 1388.68 0.2093
-2203.24 -5768.65 1390.10 0.2077
-2202.89 -5767.75 1391.11 0.2094
-2202.87 -5767.69 1392.32 0.2081
-2203.04 -5768.14 1393.66 0.2114
-2202.75 -5767.39 1394.70 0.2119
-2202.98 -5768.00 1396.07 0.2109
-2202.60 -5767.00 1397.06 0.2113
-2202.83 -5767.60 1398.43 0.2095
-2203.12 -5768.37 1399.84 0.2120
-2202.66 -5767.16 1400.77 0.2097
-2202.95 -5767.92 1402.18 0.2127
-2202.92 -5767.86 1403.40 0.2086
-2203.00 -5768.06 1404.67 0.2075
-2203.07 -5768.24 1405.94 0.2125
-2203.06 -5768.23 1407.17 0.2139
-2202.97 -5767.99 1408.34 0.2125
-2203.35 -5768.97 1409.80 0.2114
-2202.68 -5767.23 1410.61 0.2082
-2203.13 -5768.42 1412.13 0.2129
-2203.09 -5768.31 1413.32 0.2154
-2202.95 -5767.94 1414.46 0.2179
-2203.24 -5768.70 1415.88 0.2468
-2203.53 -5769.49 1417.30 0.3185
-2203.35 -5769.02 1418.41 0.3863
-2203.14 -5768.46 1419.50 0.4514
-2202.96 -5767.99 1420.61 0.4878
-2203.02 -5768.14 1421.88 0.5020
-2203.02 -5768.16 1423.11 0.5036
-2203.14 -5768.47 1424.42 0.5020
-2202.95 -5767.97 1425.52 0.5010
-2203.05 -5768.23 1426.82 0.5020
-2203.02 -5768.15 1428.03 0.5050
-2202.99 -5768.09 1429.24 0.5030
-2203.01 -5768.15 1430.48 0.5050
-2203.06 -5768.27 1431.75 0.5067
-2203.00 -5768.13 1432.94 0.5047
-2203.01 -5768.15 1434.18 0.5060
-2202.98 -5768.07 1435.39 0.5020
-2203.02 -5768.19 1436.65 0.4999
-2202.93 -5767.94 1437.82 0.5020
-2202.99 -5768.12 1439.09 0.5057
-2203.00 -5768.13 1440.32 0.5019
-2202.96 -5768.03 1441.53 0.5032
-2203.01 -5768.17 1442.80 0.5012
-2202.98 -5768.09 1444.01 0.5019
-2202.98 -5768.11 1445.24 0.5008
-2203.06 -5768.31 1447.75 0.5038
-2202.87 -5767.83 1448.86 0.5033
-2202.95 -5768.04 1450.14 0.5017
-2202.98 -5768.12 1451.39 0.5062
-2202.96 -5768.07 1452.61 0.5071
-2202.97 -5768.10 1453.85 0.5067
-2202.99 -5768.16 1455.09 0.5068
-2202.99 -5768.15 1456.32 0.5068
-2202.98 -5768.12 1457.54 0.5070
-2203.09 -5768.42 1458.85 0.5072
-2203.03 -5768.25 1460.04 0.5048
-2202.98 -5768.13 1461.24 0.5075
-2202.99 -5768.16 1462.48 0.5079
-2202.95 -5768.07 1463.69 0.5052
-2202.97 -5768.12 1464.94 0.5012
-2202.97 -5768.11 1466.17 0.4998
-2202.99 -5768.18 1467.42 0.5051
-2203.00 -5768.21 1468.66 0.5053
-2203.05 -5768.33 1469.93 0.5037
-2203.02 -5768.26 1471.15 0.5029
-2202.91 -5767.97 1472.31 0.5013
-2202.95 -5768.08 1473.57 0.4998
-2202.97 -5768.15 1474.82 0.5015
-2202.97 -5768.15 1476.05 0.5029
-2202.98 -5768.18 1477.29 0.5053
-2202.93 -5768.05 1478.49 0.5053
-2202.93 -5768.05 1479.73 0.5041
-2202.94 -5768.08 1480.97 0.5065
-2202.92 -5768.02 1482.18 0.5048
-2202.91 -5767.99 1483.41 0.5041
-2202.96 -5768.13 1484.68 0.5040
-2202.94 -5768.08 1485.90 0.5054
-2202.91 -5768.00 1487.11 0.5011
-2202.95 -5768.13 1488.38 0.5043
-2202.90 -5767.99 1489.58 0.5025
-2202.80 -5767.72 1490.75 0.5026
-2202.79 -5767.71 1491.98 0.5034
-2202.85 -5767.86 1493.25 0.5044
-2202.93 -5768.08 1494.54 0.5016
-2202.91 -5768.03 1495.76 0.5027
-2202.88 -5767.95 1496.98 0.5028
-2202.86 -5767.91 1498.20 0.5063
-2202.86 -5767.91 1499.44 0.5062
-2202.85 -5767.88 1500.67 0.5037
-2202.83 -5767.83 1501.89 0.5049
-2202.83 -5767.84 1503.13 0.5041
-2202.82 -5767.80 1504.35 0.5050
-2202.86 -5767.91 1505.62 0.5071
-2202.83 -5767.84 1506.84 0.5059
-2202.82 -5767.83 1508.07 0.5042
-2202.79 -5767.75 1509.29 0.5081
-2202.84 -5767.88 1510.56 0.5095
-2202.83 -5767.85 1511.79 0.5081
-2202.76 -5767.67 1512.98 0.5015
-2202.80 -5767.79 1514.25 0.5024
-2202.82 -5767.84 1515.50 0.5028
-2202.79 -5767.75 1516.72 0.5028
-2202.71 -5767.57 1517.91 0.5035
-2202.77 -5767.71 1519.18 0.5057
-2202.69 -5767.51 1520.37 0.5053
-2202.76 -5767.69 1521.66 0.5044
-2202.67 -5767.45 1522.83 0.5053
-2202.79 -5767.77 1524.16 0.5043
-2202.70 -5767.54 1525.34 0.5018
-2202.74 -5767.65 1526.61 0.5005
-2202.78 -5767.76 1527.88 0.5017
-2202.70 -5767.56 1529.07 0.5001
-2202.71 -5767.58 1530.31 0.4999
-2202.76 -5767.72 1531.58 0.4995
-2202.70 -5767.57 1532.79 0.5014
-2202.67 -5767.48 1534.00 0.5002
-2202.66 -5767.45 1535.23 0.4987
-2202.68 -5767.51 1536.49 0.4986
-2202.68 -5767.51 1537.73 0.4835
-2202.68 -5767.51 1538.97 0.4465
-2202.51 -5767.09 1540.10 0.3884
-2202.80 -5767.85 1541.54 0.3225
-2203.12 -5768.67 1543.00 0.2995
-2203.12 -5768.70 1544.25 0.3459
-2203.01 -5768.40 1545.41 0.4117
-2202.80 -5767.86 1546.50 0.4655
-2202.71 -5767.62 1547.68 0.4984
-2202.61 -5767.36 1548.85 0.5054
-2202.63 -5767.41 1550.10 0.5030
-2202.63 -5767.43 1551.35 0.5031
-2202.58 -5767.28 1552.55 0.5038
-2202.59 -5767.32 1553.80 0.5036
-2202.53 -5767.18 1555.00 0.5055
-2202.57 -5767.27 1556.27 0.5065
-2202.50 -5767.08 1557.46 0.5057
-2202.49 -5767.07 1558.70 0.5019
-2202.47 -5767.03 1559.92 0.5025
-2202.56 -5767.25 1561.22 0.5039
-2202.50 -5767.12 1562.43 0.5023
-2202.51 -5767.13 1563.67 0.5025
-2202.44 -5766.96 1564.86 0.5031
-2202.50 -5767.12 1566.15 0.5056
-2202.50 -5767.11 1567.38 0.5042
-2202.52 -5767.16 1568.64 0.5019
-2202.65 -5767.50 1569.97 0.5017
-2202.71 -5767.68 1571.26 0.5003
-2202.79 -5767.89 1572.56 0.4964
-2202.94 -5768.28 1573.91 0.4969
-2202.84 -5768.02 1575.08 0.4953
-2202.84 -5768.02 1576.32 0.4971
-2202.75 -5767.81 1577.51 0.5016
-2202.67 -5767.60 1578.69 0.4956
-2202.76 -5767.82 1580.00 0.4968
-2202.70 -5767.68 1581.21 0.4930
-2202.79 -5767.92 1582.51 0.4955
-2202.73 -5767.76 1583.71 0.4951
-2202.74 -5767.77 1584.96 0.4974
-2202.73 -5767.77 1586.20 0.4959
-2202.72 -5767.74 1587.44 0.4986
-2202.74 -5767.79 1588.70 0.5000
-2202.65 -5767.57 1589.88 0.4979
-2202.66 -5767.58 1591.13 0.4968
-2202.58 -5767.39 1592.32 0.4974
-2202.68 -5767.64 1593.64 0.4965
-2202.72 -5767.76 1594.92 0.4932
-2202.64 -5767.55 1596.10 0.4942
-2202.63 -5767.52 1597.34 0.4958
-2202.69 -5767.68 1598.63 0.4987
-2202.64 -5767.55 1599.84 0.4976
-2202.57 -5767.37 1601.04 0.4944
-2202.64 -5767.55 1602.33 0.4966
-2202.50 -5767.19 1603.47 0.4961
-2202.55 -5767.33 1604.76 0.4967
-2202.53 -5767.27 1605.99 0.4948
-2202.60 -5767.47 1607.29 0.4947
-2202.53 -5767.28 1608.48 0.4972
-2202.63 -5767.56 1609.80 0.4954
-2202.52 -5767.28 1610.97 0.4956
-2202.54 -5767.31 1612.23 0.4990
-2202.49 -5767.21 1613.44 0.4984
-2202.53 -5767.29 1614.71 0.4998
-2202.54 -5767.34 1615.97 0.4971
-2202.46 -5767.11 1617.15 0.4949
-2202.48 -5767.18 1618.42 0.4892
-2202.47 -5767.16 1619.66 0.4918
-2202.43 -5767.04 1620.88 0.4926
-2202.54 -5767.34 1622.21 0.4936
-2202.50 -5767.25 1623.43 0.4967
-2202.44 -5767.08 1624.63 0.4941
-2202.46 -5767.14 1625.89 0.4980
-2202.45 -5767.12 1627.13 0.4993
-2202.45 -5767.12 1628.38 0.4960
-2202.51 -5767.28 1629.68 0.4931
-2202.46 -5767.15 1630.89 0.4908
-2202.42 -5767.06 1632.11 0.4915
-2202.40 -5767.01 1633.34 0.4918
-2202.42 -5767.06 1634.61 0.4897
-2202.31 -5766.77 1635.77 0.4919
-2202.39 -5766.98 1637.08 0.4903
-2202.34 -5766.87 1638.30 0.4904
-2202.36 -5766.90 1639.56 0.4923
-2202.40 -5767.01 1640.84 0.4921
-2202.25 -5766.63 1641.98 0.4913
-2202.38 -5766.99 1643.33 0.4944
-2202.43 -5767.10 1644.61 0.4953
-2202.44 -5767.13 1645.87 0.4937
-2202.36 -5766.92 1647.06 0.4945
-2202.35 -5766.90 1648.31 0.4914
-2202.36 -5766.93 1649.56 0.4912
-2202.37 -5766.95 1650.82 0.4916
-2202.29 -5766.76 1652.02 0.4927
-2202.33 -5766.86 1653.29 0.4939
-2202.33 -5766.88 1654.55 0.4922
-2204.76 -5768.84 1300.39 0.4962
-2204.82 -5769.01 1301.65 0.4967
-2204.75 -5768.82 1302.82 0.4962
-2204.82 -5769.02 1304.09 0.4942
-2204.88 -5769.16 1305.34 0.4940
-2204.80 -5768.96 1306.51 0.4906
-2204.78 -5768.93 1307.72 0.4920
-2204.84 -5769.08 1308.98 0.4958
-2204.89 -5769.21 1310.22 0.4950
-2204.87 -5769.15 1311.43 0.4975
-2204.96 -5769.41 1312.71 0.5005
-2204.82 -5769.04 1313.84 0.4977
-2204.89 -5769.23 1315.11 0.4986
-2204.81 -5769.01 1316.28 0.4997
-2204.92 -5769.30 1317.56 0.4986
-2204.90 -5769.26 1318.77 0.5013
-2204.89 -5769.23 1319.99 0.5022
-2204.83 -5769.09 1321.17 0.5028
-2204.91 -5769.29 1322.44 0.5021
-2204.97 -5769.44 1323.70 0.4981
-2204.93 -5769.35 1324.90 0.4966
-2204.90 -5769.28 1326.10 0.4939
-2204.90 -5769.27 1327.32 0.4965
-2204.92 -5769.32 1328.55 0.4934
-2204.94 -5769.38 1329.79 0.4966
-2204.94 -5769.39 1331.01 0.4968
-2204.98 -5769.49 1332.25 0.4966
-2205.02 -5769.60 1333.50 0.4963
-2204.95 -5769.41 1334.68 0.4942
-2204.90 -5769.29 1335.87 0.4977
-2204.94 -5769.40 1337.12 0.4952
-2204.95 -5769.44 1338.35 0.4993
-2204.97 -5769.48 1339.58 0.4978
-2204.94 -5769.41 1340.79 0.4971
-2204.94 -5769.41 1342.01 0.4971
-2204.97 -5769.50 1343.26 0.4959
-2204.96 -5769.47 1344.47 0.4987
-2204.83 -5769.12 1345.61 0.4994
-2204.72 -5768.85 1346.77 0.4978
-2204.73 -5768.88 1348.00 0.5030
-2204.69 -5768.76 1349.20 0.5038
-2204.70 -5768.81 1350.43 0.5063
-2204.64 -5768.64 1351.62 0.5063
-2204.65 -5768.67 1352.84 0.5047
-2204.68 -5768.77 1354.09 0.5086
-2204.59 -5768.54 1355.26 0.5059
-2204.67 -5768.75 1356.53 0.5041
-2204.62 -5768.61 1357.72 0.5034
-2204.65 -5768.71 1358.97 0.5032
-2204.69 -5768.80 1360.21 0.5044
-2204.68 -5768.78 1361.43 0.5042
-2204.68 -5768.79 1362.66 0.5050
-2204.72 -5768.89 1363.91 0.5066
-2204.67 -5768.76 1365.11 0.5023
-2204.69 -5768.82 1366.35 0.4999
-2204.65 -5768.72 1367.55 0.4966
-2204.65 -5768.71 1368.77 0.4967
-2204.70 -5768.85 1370.03 0.5008
-2204.72 -5768.92 1371.27 0.5030
-2204.71 -5768.88 1372.49 0.5040
-2204.71 -5768.89 1373.72 0.5055
-2204.71 -5768.87 1374.94 0.4994
-2204.77 -5769.04 1376.21 0.4836
-2204.80 -5769.14 1377.46 0.4491
-2204.80 -5769.14 1378.68 0.3929
-2204.84 -5769.23 1379.93 0.3311
-2204.94 -5769.49 1381.22 0.2737
-2204.79 -5769.10 1382.36 0.2322
-2204.58 -5768.56 1383.45 0.2194
-2204.31 -5767.87 1384.51 0.2120
-2204.86 -5769.31 1386.09 0.2109
-2204.60 -5768.63 1387.15 0.2118
-2204.66 -5768.80 1388.42 0.2117
-2204.70 -5768.89 1389.67 0.2122
-2204.58 -5768.59 1390.82 0.2111
-2204.64 -5768.74 1392.08 0.2111
-2204.71 -5768.92 1393.35 0.2088
-2204.88 -5769.36 1394.68 0.2106
-2204.53 -5768.47 1395.69 0.2091
-2204.81 -5769.20 1397.09 0.2118
-2204.85 -5769.31 1398.35 0.2090
-2204.70 -5768.91 1399.47 0.2117
-2204.72 -5768.97 1400.72 0.2105
-2204.55 -5768.52 1401.83 0.2105
-2204.55 -5768.54 1403.06 0.2122
-2204.56 -5768.55 1404.29 0.2122
-2204.60 -5768.66 1405.55 0.2113
-2204.66 -5768.83 1406.81 0.2101
-2204.51 -5768.43 1407.95 0.2117
-2204.56 -5768.58 1409.21 0.2124
-2204.71 -5768.96 1410.53 0.2122
-2204.60 -5768.68 1411.69 0.2131
-2204.54 -5768.52 1412.88 0.2186
-2204.88 -5769.41 1414.32 0.2473
-2205.11 -5770.03 1415.70 0.3102
-2205.07 -5769.93 1416.91 0.3834
-2204.72 -5769.02 1417.91 0.4475
-2204.69 -5768.93 1419.12 0.4862
-2204.64 -5768.80 1420.32 0.5021
-2204.75 -5769.10 1421.62 0.5034
-2204.69 -5768.95 1422.81 0.5059
-2204.63 -5768.79 1424.00 0.5027
-2204.66 -5768.86 1425.25 0.4991
-2204.71 -5769.01 1426.51 0.5037
-2204.65 -5768.85 1427.70 0.5046
-2204.64 -5768.83 1428.93 0.5033
-2204.67 -5768.90 1430.17 0.5042
-2204.70 -5769.00 1431.43 0.5052
-2204.63 -5768.82 1432.61 0.5041
-2204.74 -5769.10 1433.91 0.5040
-2204.64 -5768.84 1435.08 0.5024
-2204.68 -5768.94 1436.33 0.5034
-2204.70 -5768.99 1437.57 0.5056
-2204.71 -5769.03 1438.81 0.5057
-2204.70 -5768.99 1440.03 0.5037
-2204.66 -5768.90 1441.24 0.5005
-2204.63 -5768.83 1442.45 0.5038
-2204.71 -5769.03 1443.74 0.5061
-2204.69 -5768.98 1444.95 0.5048
-2204.70 -5769.03 1446.20 0.5052
-2204.72 -5769.08 1447.44 0.5055
-2204.71 -5769.05 1448.66 0.5047
-2204.59 -5768.73 1449.81 0.5049
-2204.68 -5768.99 1451.11 0.5065
-2204.67 -5768.96 1452.33 0.5080
-2204.64 -5768.87 1453.54 0.5065
-2204.72 -5769.08 1454.82 0.5082
-2204.62 -5768.84 1456.00 0.5051
-2204.63 -5768.87 1457.23 0.5058
-2204.74 -5769.16 1458.54 0.5067
-2204.72 -5769.10 1459.76 0.5042
-2204.72 -5769.12 1460.99 0.5051
-2204.66 -5768.95 1462.18 0.5052
-2204.67 -5768.98 1463.42 0.5017
-2204.67 -5768.99 1464.66 0.4998
-2204.51 -5768.56 1465.78 0.4983
-2204.57 -5768.72 1467.06 0.4987
-2204.62 -5768.85 1468.32 0.5027
-2204.57 -5768.75 1469.53 0.5053
-2204.64 -5768.91 1470.80 0.5034
-2204.58 -5768.76 1472.00 0.5016
-2204.63 -5768.91 1473.27 0.5001
-2204.63 -5768.90 1474.50 0.5001
-2204.60 -5768.82 1475.72 0.4997
-2204.68 -5769.05 1477.01 0.5018
-2204.59 -5768.80 1478.18 0.5020
-2204.58 -5768.78 1479.41 0.5013
-2204.64 -5768.93 1480.68 0.5047
-2204.64 -5768.94 1481.92 0.5041
-2204.61 -5768.87 1483.13 0.5025
-2204.69 -5769.08 1484.42 0.5021
-2204.61 -5768.88 1485.60 0.5009
-2204.57 -5768.76 1486.81 0.5006
-2204.63 -5768.94 1488.09 0.5036
-2204.62 -5768.91 1489.31 0.5041
-2204.59 -5768.83 1490.53 0.5054
-2204.55 -5768.74 1491.74 0.5009
-2204.58 -5768.80 1492.99 0.5046
-2204.49 -5768.57 1494.17 0.5021
-2204.51 -5768.64 1495.42 0.5042
-2204.50 -5768.61 1496.65 0.5046
-2204.57 -5768.79 1497.93 0.5062
-2204.49 -5768.59 1499.12 0.5069
-2204.54 -5768.74 1500.39 0.5077
-2204.53 -5768.69 1501.62 0.5052
-2204.54 -5768.72 1502.86 0.5053
-2204.46 -5768.52 1504.04 0.5058
-2204.52 -5768.69 1505.32 0.5085
-2204.51 -5768.66 1506.55 0.5051
-2204.50 -5768.65 1507.79 0.5071
-2204.40 -5768.38 1508.95 0.5066
-2204.44 -5768.48 1510.22 0.5059
-2204.51 -5768.67 1511.50 0.5094
-2204.44 -5768.49 1512.69 0.5038
-2204.47 -5768.56 1513.95 0.5009
-2204.43 -5768.46 1515.16 0.5017
-2204.44 -5768.51 1516.41 0.5027
-2204.42 -5768.44 1517.63 0.5044
-2204.41 -5768.43 1518.87 0.5034
-2204.47 -5768.57 1520.15 0.5041
-2204.49 -5768.65 1521.41 0.5054
-2204.40 -5768.40 1522.58 0.5046
-2204.39 -5768.39 1523.82 0.5050
-2204.38 -5768.37 1525.05 0.5055
-2204.41 -5768.45 1526.31 0.5040
-2204.47 -5768.60 1527.60 0.5041
-2204.39 -5768.39 1528.78 0.5018
-2204.38 -5768.37 1530.02 0.5022
-2204.43 -5768.50 1531.29 0.5032
-2204.37 -5768.36 1532.49 0.5040
-2204.31 -5768.20 1533.69 0.5061
-2204.30 -5768.17 1534.92 0.5052
-2204.29 -5768.14 1536.15 0.5038
-2204.30 -5768.19 1537.41 0.5053
-2204.34 -5768.30 1538.67 0.5054
-2204.30 -5768.19 1539.88 0.4884
-2204.24 -5768.04 1541.09 0.4554
-2204.52 -5768.76 1542.52 0.4195
-2204.56 -5768.88 1543.79 0.4252
-2204.44 -5768.57 1544.95 0.4648
-2204.28 -5768.15 1546.07 0.4982
-2204.22 -5767.99 1547.27 0.5023
-2204.27 -5768.13 1548.55 0.5043
-2204.18 -5767.88 1549.72 0.5040
-2204.31 -5768.25 1551.06 0.5034
-2204.34 -5768.31 1552.32 0.5071
-2204.23 -5768.03 1553.48 0.5062
-2204.20 -5767.97 1554.71 0.5045
-2204.31 -5768.24 1556.02 0.5068
-2204.18 -5767.90 1557.17 0.5080
-2204.16 -5767.87 1558.40 0.5031
-2204.23 -5768.05 1559.69 0.5016
-2204.13 -5767.80 1560.86 0.5043
-2204.27 -5768.15 1562.20 0.5070
-2204.17 -5767.89 1563.37 0.5052
-2204.19 -5767.95 1564.63 0.5032
-2204.21 -5768.01 1565.88 0.5038
-2204.24 -5768.08 1567.14 0.5018
-2204.25 -5768.11 1568.39 0.4988
-2204.42 -5768.57 1569.76 0.4968
-2204.38 -5768.46 1570.97 0.5006
-2204.53 -5768.86 1572.32 0.4977
-2204.44 -5768.62 1573.50 0.4957
-2204.44 -5768.64 1574.75 0.4943
-2204.42 -5768.59 1575.98 0.4930
-2204.36 -5768.43 1577.18 0.4963
-2204.39 -5768.51 1578.44 0.4944
-2204.39 -5768.51 1579.69 0.4958
-2204.43 -5768.62 1580.96 0.4949
-2204.35 -5768.40 1582.15 0.4944
-2204.34 -5768.39 1583.39 0.4962
-2204.41 -5768.56 1584.68 0.4979
-2204.37 -5768.47 1585.90 0.4997
-2204.44 -5768.65 1587.19 0.4980
-2204.32 -5768.35 1588.35 0.4980
-2204.36 -5768.46 1589.63 0.5014
-2204.34 -5768.40 1590.85 0.4951
-2204.31 -5768.32 1592.08 0.4940
-2204.29 -5768.28 1593.31 0.4944
-2204.32 -5768.36 1594.58 0.4934
-2204.33 -5768.39 1595.83 0.4936
-2204.27 -5768.24 1597.04 0.4914
-2204.17 -5767.99 1598.21 0.4920
-2204.36 -5768.47 1599.59 0.4943
-2204.30 -5768.31 1600.79 0.4948
-2204.26 -5768.22 1602.01 0.4944
-2204.31 -5768.36 1603.30 0.4951
-2204.18 -5768.02 1604.44 0.4979
-2204.22 -5768.13 1605.72 0.4966
-2204.26 -5768.23 1606.99 0.4938
-2204.30 -5768.34 1608.27 0.4952
-2204.25 -5768.22 1609.48 0.4933
-2204.17 -5767.99 1610.66 0.4938
-2204.23 -5768.16 1611.96 0.4953
-2204.27 -5768.28 1613.24 0.4964
-2204.16 -5768.00 1614.40 0.4957
-2204.09 -5767.82 1615.60 0.4976
-2204.20 -5768.10 1616.92 0.4998
-2204.11 -5767.86 1618.11 0.4913
-2204.10 -5767.84 1619.35 0.4945
-2204.11 -5767.86 1620.60 0.4939
-2204.15 -5767.97 1621.88 0.4937
-2204.19 -5768.09 1623.16 0.4951
-2204.11 -5767.88 1624.35 0.4973
-2204.12 -5767.91 1625.60 0.5018
-2204.10 -5767.85 1626.83 0.5013
-2204.12 -5767.92 1628.10 0.4955
-2204.10 -5767.87 1629.33 0.4898
-2204.18 -5768.07 1630.64 0.4895
-2204.08 -5767.83 1631.82 0.4897
-2204.17 -5768.06 1633.14 0.4911
-2203.94 -5767.47 1634.22 0.4925
-2204.05 -5767.74 1635.54 0.4887
-2204.03 -5767.71 1636.78 0.4931
-2204.04 -5767.73 1638.04 0.4946
-2204.04 -5767.72 1639.28 0.4936
-2203.96 -5767.52 1640.47 0.4927
-2204.03 -5767.71 1641.78 0.4890
-2204.00 -5767.63 1643.01 0.4909
-2204.04 -5767.74 1645.54 0.4938
-2203.96 -5767.54 1646.73 0.4929
-2204.05 -5767.78 1648.05 0.4939
-2203.87 -5767.30 1649.16 0.4922
-2203.92 -5767.44 1650.45 0.4900
-2203.98 -5767.59 1651.74 0.4901
-2204.01 -5767.69 1653.02 0.4943
-2204.09 -5767.88 1654.33 0.4910
0 0 0 0.0002
-2206.40 -5769.61 1300.60 0.4964
-2206.41 -5769.62 1301.82 0.4930
-2206.45 -5769.73 1303.06 0.4957
-2206.39 -5769.58 1304.24 0.4973
-2206.38 -5769.58 1305.46 0.4953
-2206.44 -5769.73 1306.72 0.4945
-2206.35 -5769.48 1307.88 0.4940
-2206.42 -5769.67 1309.14 0.4977
-2206.49 -5769.86 1310.41 0.4969
-2206.46 -5769.79 1311.61 0.4969
-2206.47 -5769.82 1312.84 0.4988
-2206.45 -5769.76 1314.05 0.4972
-2206.49 -5769.88 1315.30 0.4977
-2206.48 -5769.85 1316.51 0.4992
-2206.52 -5769.97 1317.76 0.5004
-2206.47 -5769.84 1318.95 0.5011
-2206.49 -5769.88 1320.18 0.4995
-2206.45 -5769.79 1321.38 0.5023
-2206.43 -5769.74 1322.59 0.5018
-2206.50 -5769.93 1323.85 0.4995
-2206.48 -5769.86 1325.06 0.4967
-2206.52 -5769.97 1326.31 0.4967
-2206.55 -5770.06 1327.55 0.4999
-2206.50 -5769.92 1328.74 0.4944
-2206.51 -5769.96 1329.97 0.4909
-2206.45 -5769.81 1331.15 0.4932
-2206.49 -5769.91 1332.40 0.4965
-2206.56 -5770.09 1333.66 0.4976
-2206.59 -5770.19 1334.90 0.4980
-2206.55 -5770.07 1336.10 0.5018
-2206.58 -5770.15 1337.34 0.4987
-2206.50 -5769.96 1338.52 0.4994
-2206.53 -5770.03 1339.76 0.5012
-2206.57 -5770.15 1341.01 0.5006
-2206.57 -5770.13 1342.23 0.4998
-2206.53 -5770.05 1343.43 0.4984
-2206.48 -5769.92 1344.62 0.4963
-2206.54 -5770.07 1345.88 0.4973
-2206.49 -5769.95 1347.07 0.4977
-2206.47 -5769.89 1348.28 0.5023
-2206.38 -5769.66 1349.46 0.5022
-2206.29 -5769.44 1350.63 0.5006
-2206.18 -5769.14 1351.78 0.4980
-2206.26 -5769.36 1353.06 0.5034
-2206.19 -5769.18 1354.24 0.5058
-2206.19 -5769.19 1355.47 0.5050
-2206.21 -5769.24 1356.71 0.5023
-2206.27 -5769.38 1357.96 0.5054
-2206.26 -5769.38 1359.19 0.5035
-2206.22 -5769.27 1360.39 0.5056
-2206.25 -5769.35 1361.63 0.5032
-2206.22 -5769.28 1362.84 0.5050
-2206.27 -5769.40 1364.09 0.5053
-2206.27 -5769.42 1365.32 0.5047
-2206.20 -5769.24 1366.51 0.5027
-2206.24 -5769.34 1367.76 0.5008
-2206.24 -5769.34 1368.98 0.4988
-2206.29 -5769.47 1370.24 0.5009
-2206.26 -5769.41 1371.45 0.5028
-2206.24 -5769.36 1372.67 0.5046
-2206.25 -5769.37 1373.90 0.5060
-2206.30 -5769.51 1375.16 0.5025
-2206.28 -5769.46 1376.37 0.5013
-2206.29 -5769.50 1377.61 0.4920
-2206.36 -5769.67 1378.87 0.4704
-2206.44 -5769.88 1380.15 0.4323
-2206.46 -5769.95 1381.39 0.3777
-2206.37 -5769.72 1382.56 0.3103
-2206.32 -5769.59 1383.76 0.2523
-2206.28 -5769.49 1384.96 0.2209
-2206.29 -5769.51 1386.19 0.2141
-2206.12 -5769.07 1387.31 0.2132
-2206.11 -5769.05 1388.53 0.2133
-2206.28 -5769.51 1389.87 0.2138
-2206.42 -5769.86 1391.18 0.2101
-2206.08 -5768.99 1392.20 0.2101
-2206.19 -5769.26 1393.49 0.2097
-2206.24 -5769.39 1394.75 0.2104
-2206.20 -5769.30 1395.96 0.2110
-2206.17 -5769.23 1397.16 0.2101
-2206.25 -5769.43 1398.44 0.2072
-2206.23 -5769.39 1399.66 0.2091
-2206.04 -5768.88 1400.76 0.2107
-2206.19 -5769.28 1402.09 0.2108
-2206.22 -5769.37 1403.34 0.2114
-2206.08 -5769.01 1404.48 0.2108
-2206.02 -5768.85 1405.66 0.2122
-2206.24 -5769.44 1407.04 0.2122
-2206.25 -5769.45 1408.26 0.2139
-2206.18 -5769.27 1409.45 0.2132
-2206.30 -5769.60 1410.76 0.2161
-2206.41 -5769.89 1412.06 0.2239
-2206.63 -5770.46 1413.42 0.2574
-2206.55 -5770.25 1414.60 0.3244
-2206.46 -5770.01 1415.77 0.3940
-2206.41 -5769.88 1416.97 0.4558
-2206.31 -5769.63 1418.13 0.4943
-2206.27 -5769.52 1419.33 0.5007
-2206.32 -5769.67 1420.60 0.5023
-2206.17 -5769.28 1421.73 0.5040
-2206.27 -5769.54 1423.03 0.5044
-2206.24 -5769.48 1424.24 0.5012
-2206.20 -5769.36 1425.44 0.5020
-2206.24 -5769.46 1426.69 0.5040
-2206.22 -5769.42 1427.91 0.5066
-2206.23 -5769.46 1429.15 0.5007
-2206.23 -5769.45 1430.38 0.5024
-2206.32 -5769.70 1431.67 0.5048
-2206.24 -5769.49 1432.85 0.5053
-2206.18 -5769.32 1434.04 0.5030
-2206.22 -5769.45 1435.30 0.5029
-2206.27 -5769.57 1436.56 0.5021
-2206.29 -5769.64 1437.81 0.5040
-2206.29 -5769.62 1439.04 0.5049
-2206.26 -5769.55 1440.25 0.5038
-2206.22 -5769.44 1441.46 0.5004
-2206.28 -5769.60 1442.73 0.5030
-2206.30 -5769.66 1443.97 0.5054
-2206.25 -5769.54 1445.17 0.5046
-2206.28 -5769.62 1446.43 0.5060
-2206.20 -5769.41 1447.60 0.5080
-2206.28 -5769.62 1448.89 0.5067
-2206.17 -5769.35 1450.05 0.5061
-2206.25 -5769.56 1451.34 0.5049
-2206.26 -5769.57 1452.57 0.5051
-2206.20 -5769.42 1453.76 0.5047
-2206.19 -5769.41 1454.99 0.5045
-2206.26 -5769.58 1456.26 0.5032
-2206.28 -5769.64 1457.51 0.5018
-2206.28 -5769.65 1458.74 0.5040
-2206.17 -5769.36 1459.90 0.5032
-2206.23 -5769.54 1461.18 0.5030
-2206.21 -5769.48 1462.40 0.5065
-2206.21 -5769.48 1463.63 0.5038
-2206.25 -5769.60 1464.90 0.5016
-2206.17 -5769.38 1466.07 0.5008
-2206.22 -5769.52 1467.34 0.4981
-2206.22 -5769.54 1468.58 0.4992
-2206.25 -5769.61 1469.83 0.5039
-2206.14 -5769.32 1470.99 0.5017
-2206.10 -5769.23 1472.20 0.4996
-2206.17 -5769.41 1473.48 0.5010
-2206.17 -5769.41 1474.72 0.5026
-2206.19 -5769.46 1475.97 0.5017
-2206.15 -5769.38 1477.18 0.5005
-2206.18 -5769.46 1478.44 0.4999
-2206.15 -5769.39 1479.65 0.5010
-2206.15 -5769.39 1480.89 0.5019
-2206.15 -5769.40 1482.13 0.5029
-2206.13 -5769.33 1483.34 0.5007
-2206.17 -5769.45 1484.61 0.5032
-2206.13 -5769.36 1485.82 0.5039
-2206.14 -5769.38 1487.06 0.5041
-2206.13 -5769.35 1488.29 0.5015
-2206.16 -5769.45 1489.55 0.5077
-2206.10 -5769.30 1490.75 0.5054
-2206.11 -5769.32 1491.99 0.5042
-2206.07 -5769.22 1493.20 0.5054
-2206.20 -5769.57 1494.52 0.5049
-2206.12 -5769.36 1495.70 0.5056
-2206.08 -5769.25 1496.91 0.5006
-2206.14 -5769.41 1498.19 0.5041
-2206.08 -5769.26 1499.38 0.5082
-2206.10 -5769.32 1500.64 0.5089
-2206.06 -5769.23 1501.85 0.5053
-2206.03 -5769.14 1503.06 0.5056
-2206.08 -5769.27 1504.33 0.5031
-2206.08 -5769.29 1505.57 0.5053
-2206.05 -5769.19 1506.79 0.5054
-2206.06 -5769.23 1508.03 0.5068
-2205.99 -5769.05 1509.22 0.5034
-2206.04 -5769.17 1510.49 0.5035
-2206.10 -5769.34 1511.77 0.5060
-2206.04 -5769.18 1512.97 0.5017
-2205.98 -5769.02 1514.17 0.4996
-2206.07 -5769.26 1515.47 0.5022
-2205.96 -5768.98 1516.63 0.5012
-2206.01 -5769.13 1517.91 0.5020
-2205.95 -5768.96 1519.11 0.5050
-2206.02 -5769.14 1520.40 0.5045
-2206.01 -5769.13 1521.63 0.5036
-2205.99 -5769.08 1522.86 0.5052
-2205.98 -5769.05 1524.09 0.5052
-2206.06 -5769.26 1525.39 0.5044
-2205.96 -5769.00 1526.56 0.5048
-2205.99 -5769.10 1527.83 0.5036
-2205.89 -5768.84 1529.00 0.5033
-2205.88 -5768.81 1530.24 0.5040
-2205.90 -5768.88 1531.49 0.5057
-2205.95 -5769.00 1532.76 0.5074
-2205.92 -5768.91 1533.98 0.5060
-2205.86 -5768.77 1535.18 0.5063
-2205.96 -5769.04 1536.49 0.5067
-2205.98 -5769.08 1537.74 0.5078
-2205.86 -5768.77 1538.90 0.5089
-2205.88 -5768.84 1540.15 0.5050
-2205.79 -5768.60 1541.33 0.4980
-2205.97 -5769.07 1542.69 0.4881
-2205.94 -5769.01 1543.92 0.4928
-2205.88 -5768.83 1545.11 0.5019
-2205.85 -5768.76 1546.33 0.5043
-2205.84 -5768.75 1547.57 0.5002
-2205.79 -5768.62 1548.78 0.5000
-2205.79 -5768.62 1550.02 0.5024
-2205.79 -5768.63 1551.26 0.5026
-2205.85 -5768.77 1552.54 0.5054
-2205.80 -5768.64 1553.75 0.5085
-2205.82 -5768.71 1555.01 0.5083
-2205.79 -5768.64 1556.23 0.5074
-2205.78 -5768.61 1557.46 0.5067
-2205.78 -5768.61 1558.71 0.5055
-2205.74 -5768.51 1559.92 0.5025
-2205.76 -5768.57 1561.18 0.5063
-2205.76 -5768.57 1562.42 0.5068
-2205.73 -5768.50 1563.64 0.5062
-2205.77 -5768.60 1564.91 0.5027
-2205.83 -5768.77 1566.20 0.5005
-2205.89 -5768.93 1567.48 0.5006
-2205.91 -5768.98 1568.74 0.4962
-2206.08 -5769.42 1570.10 0.4969
-2206.08 -5769.41 1571.34 0.5004
-2206.10 -5769.48 1572.60 0.4983
-2206.05 -5769.34 1573.81 0.4971
-2206.00 -5769.22 1575.02 0.4973
-2205.98 -5769.17 1576.25 0.4936
-2205.99 -5769.19 1577.50 0.4918
-2206.01 -5769.26 1578.76 0.4935
-2205.95 -5769.09 1579.96 0.4951
-2206.00 -5769.24 1581.24 0.4973
-2206.01 -5769.25 1582.49 0.4972
-2205.91 -5769.00 1583.67 0.4961
-2205.97 -5769.17 1584.96 0.4968
-2205.92 -5769.05 1586.17 0.4969
-2205.97 -5769.18 1587.45 0.4950
-2205.90 -5769.00 1588.64 0.4943
-2205.89 -5768.97 1589.88 0.4982
-2205.96 -5769.15 1591.18 0.4961
-2205.85 -5768.87 1592.34 0.4932
-2205.94 -5769.10 1593.65 0.4944
-2205.91 -5769.04 1594.88 0.4933
-2205.86 -5768.90 1596.09 0.4915
-2205.82 -5768.80 1597.30 0.4919
-2205.78 -5768.71 1598.53 0.4922
-2205.86 -5768.92 1599.83 0.4944
-2205.84 -5768.87 1601.06 0.4957
-2205.83 -5768.83 1602.30 0.4949
-2205.81 -5768.78 1603.53 0.4922
-2205.80 -5768.77 1604.77 0.4952
-2205.83 -5768.85 1606.04 0.4963
-2205.73 -5768.59 1607.21 0.4986
-2205.83 -5768.84 1608.53 0.4968
-2205.79 -5768.74 1609.75 0.4959
-2205.79 -5768.76 1611.00 0.4958
-2205.72 -5768.58 1612.19 0.4928
-2205.77 -5768.70 1613.47 0.4921
-2205.70 -5768.54 1614.68 0.4921
-2205.73 -5768.61 1615.94 0.4951
-2205.81 -5768.83 1617.25 0.5002
-2205.69 -5768.51 1618.41 0.4930
-2205.59 -5768.25 1619.58 0.4943
-2205.61 -5768.32 1620.85 0.4969
-2205.60 -5768.28 1622.08 0.4951
-2205.69 -5768.53 1623.40 0.4955
-2205.68 -5768.49 1624.64 0.4952
-2205.74 -5768.65 1625.93 0.4976
-2205.72 -5768.61 1627.17 0.4975
-2205.69 -5768.54 1628.39 0.4922
-2205.69 -5768.53 1629.64 0.4886
-2205.61 -5768.34 1630.84 0.4874
-2205.69 -5768.55 1632.14 0.4894
-2205.62 -5768.35 1633.34 0.4915
-2205.58 -5768.26 1634.56 0.4925
-2205.65 -5768.45 1635.86 0.4877
-2205.60 -5768.31 1637.07 0.4889
-2205.62 -5768.36 1638.34 0.4940
-2205.57 -5768.25 1639.55 0.4946
-2205.72 -5768.64 1640.92 0.4922
-2205.60 -5768.32 1642.08 0.4910
-2205.57 -5768.25 1644.56 0.4906
-2205.57 -5768.25 1645.80 0.4947
-2205.55 -5768.20 1647.04 0.4968
-2205.52 -5768.12 1648.27 0.4952
-2205.56 -5768.25 1649.56 0.4919
-2205.47 -5768.00 1650.74 0.4906
-2205.51 -5768.10 1652.02 0.4926
-2205.51 -5768.13 1653.27 0.4939
-2205.57 -5768.27 1654.57 0.4961
0 0 0 0.0000
-2208.02 -5770.40 1299.93 0.4979
-2207.97 -5770.27 1301.12 0.4943
-2208.03 -5770.44 1302.38 0.4939
-2208.10 -5770.61 1303.64 0.4946
-2208.02 -5770.41 1304.81 0.4982
-2208.01 -5770.34 1306.01 0.4996
-2208.03 -5770.39 1307.25 0.4937
-2208.01 -5770.34 1308.46 0.4983
-2208.01 -5770.36 1309.68 0.4971
-2208.07 -5770.51 1310.94 0.4973
-2208.02 -5770.40 1312.13 0.4965
-2208.04 -5770.45 1313.36 0.4966
-2208.05 -5770.48 1314.59 0.4955
-2208.05 -5770.49 1315.81 0.5004
-2208.03 -5770.44 1317.02 0.5013
-2208.05 -5770.49 1318.26 0.5033
-2208.13 -5770.72 1319.53 0.5013
-2207.98 -5770.33 1320.66 0.4998
-2208.01 -5770.40 1323.13 0.4994
-2208.10 -5770.66 1324.41 0.4995
-2208.09 -5770.63 1325.62 0.4985
-2208.14 -5770.77 1326.88 0.5006
-2208.15 -5770.79 1328.11 0.5016
-2208.11 -5770.69 1329.31 0.4955
-2208.08 -5770.63 1330.51 0.4879
-2208.16 -5770.83 1331.78 0.4886
-2208.09 -5770.65 1332.97 0.4939
-2208.16 -5770.82 1334.23 0.4977
-2208.23 -5771.00 1335.50 0.5015
-2208.18 -5770.88 1336.69 0.5015
-2208.19 -5770.90 1337.92 0.5036
-2208.29 -5771.16 1339.20 0.5042
-2208.13 -5770.74 1340.33 0.4978
-2208.20 -5770.91 1341.59 0.4981
-2208.19 -5770.89 1342.81 0.5021
-2208.17 -5770.86 1344.02 0.4980
-2208.13 -5770.74 1345.22 0.4986
-2208.19 -5770.89 1346.48 0.4966
-2208.23 -5771.01 1347.73 0.4992
-2208.13 -5770.76 1348.89 0.5009
-2208.13 -5770.75 1350.12 0.4962
-2207.97 -5770.33 1351.24 0.4941
-2207.92 -5770.21 1352.44 0.4961
-2207.86 -5770.05 1353.62 0.4999
-2207.86 -5770.05 1354.85 0.5017
-2207.85 -5770.06 1356.07 0.5037
-2207.86 -5770.08 1357.30 0.5059
-2207.84 -5770.03 1358.51 0.5066
-2207.90 -5770.21 1359.77 0.5036
-2207.91 -5770.23 1361.00 0.5031
-2207.86 -5770.10 1362.20 0.5056
-2207.90 -5770.22 1363.45 0.5058
-2207.92 -5770.28 1364.69 0.5043
-2207.83 -5770.05 1365.86 0.5002
-2207.86 -5770.14 1367.10 0.5016
-2207.86 -5770.13 1368.33 0.5038
-2207.86 -5770.15 1369.55 0.5025
-2207.81 -5770.02 1370.75 0.5009
-2207.90 -5770.26 1372.03 0.5042
-2207.89 -5770.22 1373.25 0.5055
-2207.89 -5770.23 1374.48 0.5070
-2207.88 -5770.20 1375.69 0.5069
-2207.89 -5770.23 1376.92 0.5046
-2207.97 -5770.44 1378.20 0.5004
-2207.93 -5770.33 1379.40 0.4973
-2207.91 -5770.30 1380.62 0.4872
-2207.88 -5770.21 1381.82 0.4583
-2208.10 -5770.79 1383.19 0.4069
-2208.00 -5770.52 1384.35 0.3385
-2208.04 -5770.65 1385.61 0.2735
-2207.89 -5770.26 1386.74 0.2308
-2207.90 -5770.28 1387.97 0.2167
-2207.78 -5769.97 1389.12 0.2126
-2207.77 -5769.96 1390.34 0.2120
-2207.68 -5769.71 1391.51 0.2092
